ply
format ascii 1.0
element vertex 1211
property float x
property float y
property float z
property uchar blue
property uchar green
property uchar red
end_header
5.047539 -0.604521 11.648752 83 93 100
5.049007 -0.602493 11.626245 99 107 111
5.080529 -0.607293 11.626093 102 110 116
5.091887 -0.607504 11.610858 100 107 112
5.105809 -0.608290 11.597463 99 103 111
5.129153 -0.611189 11.590795 100 107 110
5.140735 -0.611433 11.575556 109 120 125
5.159535 -0.613288 11.565393 113 123 128
5.164602 -0.612071 11.545499 112 121 127
5.180902 -0.613356 11.533456 143 150 152
5.194783 -0.614096 11.519666 112 121 130
5.203822 -0.613762 11.502528 107 117 121
5.216923 -0.614323 11.488139 83 90 95
5.214914 -0.611562 11.463620 105 112 116
5.227020 -0.611906 11.448585 110 118 125
5.238203 -0.612046 11.432916 132 141 145
5.248755 -0.612047 11.416820 93 103 106
5.264321 -0.613136 11.403934 110 121 128
5.283508 -0.615001 11.393281 114 125 131
5.295149 -0.615225 11.377758 113 123 129
5.325440 -0.619461 11.373843 108 118 124
5.322483 -0.616538 11.349148 113 121 130
5.344950 -0.619070 11.340153 114 124 131
5.348861 -0.617627 11.319773 123 129 135
5.373824 -0.620671 11.312079 118 127 133
5.373909 -0.618418 11.289448 121 133 134
5.381487 -0.617763 11.271334 126 135 139
5.394983 -0.618359 11.256686 117 123 127
5.397872 -0.616719 11.235894 124 135 138
5.409050 -0.616826 11.219906 122 131 132
5.432891 -0.619581 11.211038 117 125 128
5.448015 -0.620501 11.197145 117 126 129
5.438364 -0.616261 11.169518 130 136 140
5.446817 -0.615799 11.152005 128 140 142
5.456019 -0.615494 11.134912 130 136 141
5.468445 -0.615855 11.119553 132 142 146
5.482588 -0.616567 11.105072 131 138 143
5.494002 -0.616713 11.089114 129 138 144
5.499675 -0.615683 11.070168 127 134 144
5.499416 -0.613448 11.048230 126 134 142
5.495653 -0.610510 11.024630 118 131 136
5.505422 -0.610334 11.007961 129 135 139
5.515060 -0.610132 10.991229 113 119 121
5.504608 -0.605875 10.964652 110 120 125
5.524726 -0.607793 10.953112 116 125 130
5.526336 -0.605985 10.932590 108 118 125
5.526243 -0.603845 10.911351 93 101 111
5.533156 -0.603114 10.893499 112 121 125
5.546493 -0.603665 10.878654 101 109 117
5.567818 -0.605800 10.867425 108 117 124
5.575960 -0.605310 10.850109 115 124 127
5.576258 -0.603273 10.829304 111 118 120
5.580986 -0.602119 10.810556 112 120 120
5.580051 -0.599857 10.789388 118 124 130
5.606526 -0.602978 10.780157 112 119 124
5.595004 -0.598655 10.754554 118 127 131
5.605318 -0.598610 10.738367 127 136 139
5.615947 -0.598626 10.722306 122 130 135
5.622182 -0.597790 10.704429 98 110 113
5.630556 -0.597370 10.687455 112 123 123
5.625619 -0.594384 10.665160 106 119 127
5.634577 -0.594086 10.648511 115 125 127
5.634195 -0.591996 10.628220 91 97 99
5.644521 -0.591966 10.612159 113 123 125
5.640094 -0.589119 10.590472 115 126 128
5.647848 -0.588605 10.573504 121 131 136
5.652188 -0.587445 10.555288 98 107 112
5.651870 -0.585407 10.535418 111 121 125
5.652943 -0.583642 10.516146 100 110 114
5.650926 -0.581302 10.495853 78 87 94
5.648246 -0.578850 10.475440 48 53 58
5.648128 -0.576889 10.456033 43 49 54
5.646537 -0.574662 10.436213 36 40 44
5.642597 -0.572007 10.415705 74 81 81
5.640885 -0.569779 10.396065 96 105 108
5.644780 -0.568603 10.378368 107 116 120
5.642897 -0.566362 10.358855 93 101 104
5.633774 -0.562795 10.337140 92 99 104
5.638755 -0.561842 10.320025 85 91 96
5.646719 -0.561442 10.303873 33 34 37
5.655105 -0.561121 10.287862 40 46 48
5.658395 -0.559868 10.270329 41 49 48
5.657038 -0.557774 10.251476 73 79 80
5.672006 -0.558659 10.237473 71 80 81
5.663198 -0.555224 10.216604 73 81 83
5.658188 -0.552493 10.196968 64 73 77
5.657657 -0.550584 10.178703 60 72 72
5.668207 -0.550679 10.163553 57 62 64
5.653002 -0.546145 10.141467 91 99 97
5.660541 -0.545710 10.125609 91 97 99
5.639358 -0.540140 10.102298 64 72 71
5.637863 -0.538108 10.084284 36 40 42
5.629292 -0.534827 10.064584 45 48 48
5.641361 -0.535224 10.050134 75 86 83
5.641442 -0.533496 10.032748 113 117 122
5.637564 -0.531076 10.014495 93 99 104
5.644989 -0.530659 9.998998 55 64 64
5.643094 -0.528605 9.981371 78 87 85
5.663350 -0.530445 9.968834 95 104 105
5.663567 -0.528770 9.951764 105 115 116
5.661833 -0.526761 9.934345 113 121 124
5.660952 -0.524910 9.917196 113 121 124
5.663989 -0.523747 9.900947 114 123 123
5.654887 -0.520486 9.882261 109 116 119
5.641498 -0.516499 9.862864 105 112 114
5.653168 -0.516851 9.848572 111 121 122
5.634122 -0.511917 9.828348 61 67 74
5.660338 -0.514774 9.816874 115 122 125
5.656882 -0.510898 9.783428 103 113 115
4.200857 -0.489562 12.024021 123 130 130
4.258510 -0.502089 12.065539 127 133 131
4.320310 -0.515594 12.110827 124 129 129
4.320220 -0.513177 12.086042 129 134 133
4.334547 -0.514451 12.077385 103 106 100
4.366971 -0.520310 12.088510 105 106 102
4.385433 -0.522595 12.083998 88 87 78
4.399771 -0.523824 12.074860 77 74 70
4.417056 -0.525783 12.068783 137 140 139
4.425419 -0.525494 12.053075 123 125 124
4.440766 -0.526949 12.044741 98 103 103
4.434562 -0.523029 12.013754 131 133 131
4.456765 -0.526182 12.012498 150 154 150
4.477217 -0.528879 12.009212 146 152 149
4.480230 -0.527261 11.987936 150 151 150
4.509964 -0.532214 11.993802 64 71 72
4.540300 -0.537281 11.999924 79 88 91
4.559637 -0.539630 11.994743 89 96 98
4.582446 -0.542807 11.992821 89 97 100
4.596151 -0.543756 11.981764 81 92 92
4.631543 -0.549936 11.991680 50 49 50
4.642622 -0.550222 11.977771 50 53 52
4.651832 -0.550055 11.962049 60 68 65
4.664252 -0.550657 11.949365 46 53 56
4.676744 -0.551271 11.936697 76 84 87
4.682560 -0.550293 11.917768 84 93 94
4.717484 -0.556217 11.925750 47 55 57
4.732527 -0.557407 11.915142 54 58 58
4.730237 -0.554508 11.888723 38 42 40
4.743965 -0.555385 11.876890 38 44 46
4.755391 -0.555717 11.862937 60 64 64
4.772023 -0.557260 11.853555 71 78 79
4.786150 -0.558209 11.841865 80 88 89
4.805401 -0.560340 11.834556 39 44 44
4.826166 -0.562805 11.828403 79 85 86
4.847410 -0.565364 11.822489 51 57 59
4.863144 -0.566642 11.811737 71 76 77
4.892420 -0.571009 11.812254 63 72 73
4.910315 -0.572752 11.803015 60 68 70
4.919645 -0.572536 11.786594 68 73 76
4.937768 -0.574313 11.777362 72 77 79
4.952118 -0.575226 11.764951 67 73 76
4.976531 -0.578399 11.760550 74 79 79
4.983537 -0.577642 11.742088 66 72 74
4.995122 -0.577915 11.727275 77 84 89
5.013892 -0.579788 11.718049 68 74 77
5.028580 -0.580740 11.705535 71 76 75
5.032407 -0.579276 11.684613 63 68 67
5.046534 -0.580098 11.671608 70 74 75
5.055280 -0.579728 11.654487 60 64 64
5.075911 -0.581972 11.646255 50 57 60
5.084465 -0.581554 11.628935 42 44 48
5.095201 -0.581615 11.613232 32 37 40
5.112524 -0.583110 11.602301 31 36 38
5.133933 -0.585482 11.594209 30 34 37
5.146299 -0.585881 11.579513 31 36 39
5.155355 -0.585561 11.562443 33 39 43
5.160753 -0.584455 11.542821 33 41 43
5.174469 -0.585140 11.529026 44 51 55
5.194241 -0.587116 11.519340 36 43 47
5.201620 -0.586435 11.501090 34 39 42
5.191267 -0.581983 11.470922 70 77 81
5.210774 -0.583892 11.460945 72 80 87
5.233475 -0.586465 11.452956 84 87 95
5.233901 -0.584323 11.430215 98 103 107
5.252373 -0.585989 11.419297 82 88 92
5.276893 -0.588912 11.412155 66 73 79
5.306888 -0.592962 11.408311 83 92 97
5.301694 -0.589651 11.382054 55 61 69
5.315161 -0.590237 11.367621 82 91 98
5.325820 -0.590237 11.351410 86 97 104
5.346207 -0.592247 11.341137 88 99 105
5.358507 -0.592578 11.325840 95 105 111
5.370530 -0.592849 11.310349 101 111 118
5.372571 -0.591071 11.288910 96 106 113
5.383822 -0.591185 11.272974 101 111 117
5.395348 -0.591354 11.257182 84 91 97
5.398968 -0.589913 11.236821 97 108 111
5.414147 -0.590823 11.223118 87 93 95
5.427717 -0.591401 11.208445 89 97 103
5.420610 -0.587808 11.182195 93 101 106
5.448321 -0.591232 11.175363 83 90 98
5.456944 -0.590811 11.157898 88 97 105
5.466164 -0.590510 11.140771 62 73 78
5.475130 -0.590159 11.123514 69 79 85
5.483047 -0.589600 11.105714 71 82 87
5.486433 -0.588146 11.085565 50 60 66
5.486349 -0.586013 11.063690 50 57 65
5.481786 -0.583007 11.039634 48 56 63
5.487485 -0.582035 11.020937 51 58 64
5.494473 -0.581320 11.002933 40 44 52
5.504529 -0.581207 10.986480 71 77 82
5.512612 -0.580710 10.969056 80 89 93
5.523004 -0.580664 10.952772 74 82 88
5.520580 -0.578131 10.930338 94 100 105
5.539046 -0.579651 10.917934 69 81 86
5.534763 -0.576775 10.894780 48 53 60
5.543838 -0.576482 10.877963 28 32 35
5.563611 -0.578243 10.866052 29 32 34
5.584349 -0.580178 10.854471 30 33 37
5.573797 -0.576132 10.828778 35 39 41
5.591316 -0.577448 10.815708 35 39 42
5.602661 -0.577584 10.799860 48 51 55
5.594532 -0.574032 10.775590 48 54 56
5.609011 -0.574767 10.761146 57 63 63
5.608625 -0.572697 10.740390 59 63 69
5.620793 -0.572996 10.724963 80 88 90
5.614252 -0.569788 10.701819 92 98 101
5.629362 -0.570640 10.687633 95 100 102
5.638148 -0.570309 10.670856 74 82 85
5.633688 -0.567517 10.648841 97 106 108
5.644787 -0.567623 10.633052 63 70 71
5.642006 -0.565161 10.611890 100 108 110
5.632183 -0.561412 10.588168 93 99 100
5.640914 -0.561095 10.571617 96 101 104
5.648724 -0.560610 10.554732 92 101 102
5.657204 -0.560249 10.538111 82 90 92
5.650377 -0.557095 10.515965 84 91 93
5.667885 -0.558386 10.502659 95 102 105
5.646653 -0.552636 10.475644 88 96 99
5.654850 -0.552245 10.459139 76 83 86
5.654713 -0.550349 10.439793 72 77 81
5.650886 -0.547797 10.419291 63 68 71
5.644890 -0.544867 10.398194 47 55 57
5.664721 -0.546582 10.385718 79 87 86
5.652376 -0.542533 10.362735 104 114 114
5.637617 -0.538073 10.339185 58 63 69
5.653491 -0.539085 10.325483 44 48 53
5.661534 -0.538702 10.309297 59 65 63
5.670118 -0.538416 10.293287 76 83 86
5.674644 -0.537413 10.276066 89 96 96
5.667742 -0.534402 10.255507 102 110 114
5.673116 -0.533562 10.238670 97 103 106
5.691426 -0.534993 10.225580 81 81 80
5.669671 -0.529411 10.201096 97 95 88
5.669911 -0.527692 10.183001 89 85 78
5.673363 -0.526540 10.165864 71 64 61
5.673949 -0.524895 10.148007 117 122 122
5.657438 -0.520297 10.125702 118 125 128
5.652128 -0.517656 10.106537 116 124 127
5.646415 -0.514958 10.087395 105 112 120
5.643502 -0.512753 10.069086 89 95 101
5.638150 -0.510140 10.050277 114 121 121
5.641723 -0.509065 10.033760 105 113 115
5.642792 -0.507568 10.016691 115 123 125
5.650764 -0.507252 10.001308 106 113 117
5.657245 -0.506684 9.985591 93 98 99
5.664463 -0.506243 9.970060 102 110 113
5.664095 -0.504521 9.952863 55 64 67
5.655653 -0.501446 9.933989 87 94 90
5.660276 -0.500582 9.918045 101 105 99
5.670013 -0.500579 9.903206 97 99 95
5.659025 -0.497108 9.884112 106 110 106
5.653571 -0.494576 9.866295 130 141 140
5.648238 -0.492075 9.848618 130 135 138
5.652728 -0.491218 9.832949 138 146 147
5.645333 -0.488395 9.815073 137 142 145
5.644413 -0.486654 9.798523 119 123 130
4.222152 -0.471661 12.047544 122 126 125
4.260258 -0.478874 12.066691 129 134 134
4.307305 -0.488251 12.095362 129 135 135
4.325137 -0.490350 12.090721 124 129 127
4.343590 -0.492587 12.086605 113 117 105
4.363208 -0.495093 12.083594 127 121 113
4.388626 -0.498999 12.086710 80 76 68
4.414949 -0.503097 12.090509 73 70 63
4.415430 -0.500895 12.066306 142 149 144
4.427542 -0.501520 12.054614 133 138 136
4.447070 -0.503927 12.050686 113 120 118
4.449100 -0.502113 12.028277 121 126 126
4.452899 -0.500734 12.007822 131 135 135
4.469559 -0.502432 12.000683 151 157 157
4.488318 -0.504618 11.995555 141 146 144
4.519396 -0.509708 12.002724 76 83 79
4.542564 -0.512895 12.001588 83 88 87
4.553613 -0.513205 11.988156 88 92 92
4.576191 -0.516219 11.986071 107 113 113
4.611429 -0.522174 11.996152 103 108 110
4.624543 -0.522929 11.984338 83 77 72
4.636712 -0.523459 11.971551 85 81 74
4.656653 -0.525786 11.966133 89 89 81
4.672108 -0.527060 11.956298 66 64 59
4.694294 -0.529874 11.952682 91 98 104
4.689684 -0.526522 11.923929 86 95 98
4.718952 -0.530937 11.926650 80 89 93
4.730209 -0.531218 11.912583 94 103 109
4.733388 -0.529660 11.891161 77 86 89
4.747124 -0.530502 11.879326 58 63 69
4.760197 -0.531188 11.866833 79 86 89
4.780110 -0.533408 11.860329 77 82 84
4.794860 -0.534455 11.849140 82 89 91
4.809696 -0.535514 11.837944 63 67 69
4.820961 -0.535769 11.823592 85 89 92
4.842495 -0.538303 11.817980 98 103 105
4.890370 -0.546657 11.834481 97 102 104
4.897631 -0.545987 11.816341 110 115 117
4.890968 -0.542255 11.786657 114 121 122
4.921213 -0.546646 11.787635 117 124 127
4.939129 -0.548311 11.778236 116 126 125
4.958966 -0.550384 11.770274 110 119 121
4.974898 -0.551593 11.759031 86 92 97
4.981533 -0.550779 11.740301 95 100 104
4.978122 -0.547798 11.713693 112 120 125
5.002888 -0.550905 11.709289 102 112 116
5.018068 -0.551933 11.697247 63 71 75
5.040781 -0.554567 11.690909 73 79 82
5.041706 -0.552533 11.667821 85 91 92
5.069327 -0.556192 11.664973 101 107 111
5.080071 -0.556247 11.649276 97 109 110
5.088232 -0.555753 11.631652 81 91 95
5.095901 -0.555158 11.613689 92 100 105
5.116692 -0.557325 11.605288 85 92 99
5.140621 -0.560136 11.598997 84 91 97
5.154306 -0.560788 11.585211 79 86 91
5.177526 -0.563423 11.578111 67 77 79
5.168912 -0.559425 11.548551 73 77 81
5.179649 -0.559460 11.532650 68 76 76
5.188796 -0.559165 11.515645 69 75 77
5.216391 -0.562670 11.511203 52 59 60
5.216534 -0.560516 11.488027 51 56 58
5.218789 -0.558807 11.466385 73 77 81
5.225034 -0.557921 11.447477 69 75 81
5.244831 -0.559797 11.437490 62 67 68
5.268548 -0.562459 11.429920 56 61 61
5.272374 -0.561077 11.409398 64 69 71
5.281331 -0.560738 11.392215 73 81 81
5.301675 -0.562692 11.382215 67 77 81
5.326568 -0.565546 11.374924 79 84 89
5.328969 -0.563883 11.353556 72 80 84
5.349135 -0.565773 11.343143 76 84 86
5.346104 -0.563036 11.318561 85 92 96
5.372128 -0.566077 11.311550 92 98 101
5.392425 -0.567967 11.300946 94 99 103
5.384295 -0.564239 11.273521 118 127 135
5.385811 -0.562428 11.251920 88 97 102
5.396108 -0.562348 11.235471 60 67 68
5.415156 -0.563980 11.224002 59 66 67
5.425726 -0.563948 11.207644 54 59 60
5.434516 -0.563569 11.190288 91 101 106
5.438000 -0.562162 11.170012 106 118 125
5.455919 -0.563554 11.157700 104 109 113
5.461143 -0.562489 11.138430 101 109 112
5.485559 -0.565120 11.129480 101 110 113
5.494774 -0.564820 11.112321 97 103 106
5.502564 -0.564248 11.094422 100 107 110
5.508868 -0.563395 11.075779 93 99 103
5.490156 -0.557787 11.044356 80 86 90
5.507436 -0.559037 11.031495 82 88 93
5.507155 -0.556957 11.009748 71 78 80
5.523821 -0.558084 10.996514 54 59 64
5.525514 -0.556387 10.975864 67 73 75
5.531458 -0.555497 10.957365 86 93 97
5.539303 -0.554966 10.939818 80 87 93
5.543146 -0.553690 10.920396 71 75 80
5.553407 -0.553614 10.904045 45 51 51
5.551354 -0.551253 10.881985 58 66 69
5.567569 -0.552285 10.868417 72 80 84
5.577888 -0.552222 10.852111 87 93 96
5.589560 -0.552408 10.836406 62 69 74
5.610348 -0.554266 10.824711 58 65 70
5.591295 -0.548816 10.795491 59 64 68
5.605346 -0.549441 10.780867 92 97 100
5.604912 -0.547424 10.760016 90 96 100
5.622318 -0.548657 10.746791 96 104 105
5.625599 -0.547323 10.727605 105 113 117
5.628304 -0.545892 10.708248 119 131 137
5.635194 -0.545221 10.690663 70 78 81
5.632906 -0.542904 10.669424 83 88 90
5.638849 -0.542073 10.651567 75 82 86
5.625906 -0.537868 10.626358 113 119 123
5.643618 -0.539153 10.613214 115 125 130
5.635416 -0.535819 10.590108 101 109 112
5.628364 -0.532707 10.567613 87 93 97
5.655507 -0.535661 10.557981 135 145 144
5.659255 -0.534470 10.539601 137 146 147
5.663095 -0.533300 10.521313 138 147 147
5.675802 -0.533692 10.506244 129 138 140
5.666192 -0.530172 10.483287 131 137 139
5.648076 -0.525184 10.457560 130 138 138
5.654250 -0.524453 10.440415 125 131 134
5.661048 -0.523834 10.423513 113 119 121
5.652059 -0.520479 10.401378 69 75 77
5.660118 -0.520090 10.385015 113 123 123
5.658851 -0.518092 10.365644 86 93 97
5.659245 -0.516390 10.346904 102 108 112
5.648251 -0.512741 10.324665 63 73 73
5.659070 -0.512844 10.309373 76 83 85
5.669081 -0.512808 10.293819 65 74 77
5.673485 -0.511816 10.276575 47 55 55
5.683797 -0.511832 10.261124 115 124 127
5.671458 -0.508008 10.239058 112 119 121
5.688434 -0.509159 10.225605 95 92 90
5.691595 -0.507974 10.208177 121 125 117
5.676482 -0.503719 10.185721 79 80 72
5.687739 -0.503910 10.170700 58 59 61
5.689136 -0.502448 10.153006 140 145 142
5.669421 -0.497467 10.129788 130 139 140
5.661579 -0.494489 10.109917 105 112 115
5.649204 -0.490770 10.089033 93 99 102
5.637414 -0.487166 10.068482 86 93 97
5.642945 -0.486444 10.052399 97 105 105
5.637510 -0.483915 10.033678 121 128 127
5.644958 -0.483518 10.018158 119 126 129
5.649563 -0.482655 10.001985 108 114 117
5.653233 -0.481642 9.985632 97 105 104
5.673385 -0.483327 9.973051 109 120 122
5.684320 -0.483500 9.958330 142 147 144
5.660996 -0.478102 9.936136 138 135 132
5.678167 -0.479297 9.922856 122 127 121
5.668855 -0.476201 9.903964 146 144 137
5.641720 -0.470243 9.881566 116 117 116
5.646802 -0.469499 9.865942 127 137 139
5.650795 -0.468584 9.850134 131 142 146
5.642570 -0.465714 9.832009 137 148 149
5.655480 -0.466236 9.818013 133 141 144
5.654340 -0.464514 9.801387 117 126 129
5.649279 -0.462176 9.784132 110 122 125
4.221224 -0.448068 12.045643 112 117 117
4.266234 -0.456675 12.072639 110 117 117
4.306989 -0.464205 12.094182 120 125 125
4.332829 -0.468132 12.098496 126 129 129
4.335086 -0.466437 12.076397 100 102 92
4.363256 -0.470879 12.082869 121 121 114
4.384682 -0.473700 12.081648 75 70 65
4.415672 -0.478747 12.090537 75 72 65
4.418275 -0.477116 12.068622 145 153 147
4.439367 -0.479806 12.066464 115 119 119
4.443873 -0.478623 12.046615 105 111 109
4.440964 -0.475729 12.019089 142 142 142
4.457358 -0.477309 12.011781 171 173 172
4.472756 -0.478649 12.003322 173 174 172
4.488176 -0.479984 11.994776 138 145 141
4.516773 -0.484321 11.999449 79 86 85
4.535336 -0.486343 11.993730 80 88 88
4.567952 -0.491540 12.001831 74 81 81
4.582742 -0.492669 11.991958 102 110 115
4.605191 -0.495516 11.989485 87 95 97
4.625957 -0.497966 11.985162 91 81 74
4.653656 -0.501952 11.987322 110 103 96
4.669809 -0.503332 11.978168 106 106 100
4.682992 -0.504042 11.966095 72 64 61
4.689710 -0.503310 11.947895 91 102 102
4.702500 -0.503926 11.935384 94 101 103
4.718285 -0.505197 11.925581 76 87 88
4.733786 -0.506397 11.915417 68 79 80
4.741576 -0.505898 11.898166 65 74 76
4.748925 -0.505306 11.880541 73 80 83
4.756084 -0.504674 11.862779 89 96 100
4.773279 -0.506224 11.853918 105 110 112
4.798723 -0.509547 11.852166 90 96 99
4.808353 -0.509438 11.836435 54 63 64
4.835463 -0.513086 11.835752 60 68 70
4.850199 -0.514059 11.824244 71 81 83
4.872999 -0.516747 11.819481 72 81 86
4.905581 -0.521499 11.822728 65 75 76
4.935174 -0.525587 11.823150 81 89 93
4.933258 -0.522982 11.797310 80 86 89
4.929664 -0.520038 11.770267 109 114 118
4.955734 -0.523348 11.767435 122 132 133
4.978134 -0.525868 11.761422 65 76 79
4.972580 -0.522530 11.732988 82 89 91
5.010516 -0.528271 11.739059 77 83 89
5.013175 -0.526650 11.717167 93 104 108
5.019670 -0.525832 11.698341 71 76 80
5.042583 -0.528407 11.692163 66 73 77
5.050610 -0.527901 11.674478 72 80 86
5.063839 -0.528466 11.660736 120 129 131
5.074411 -0.528482 11.644962 90 99 108
5.091043 -0.529733 11.633661 92 99 105
5.113077 -0.532074 11.626227 96 100 104
5.122860 -0.531916 11.609727 126 138 138
5.145659 -0.534389 11.602596 121 131 138
5.167881 -0.536731 11.594880 110 124 128
5.166203 -0.534255 11.570113 124 133 138
5.193032 -0.537504 11.565452 120 129 130
5.179967 -0.532764 11.532902 115 124 126
5.200472 -0.534737 11.523712 107 117 117
5.215349 -0.535579 11.510553 88 97 101
5.219788 -0.534350 11.490294 86 90 94
5.223650 -0.533012 11.469719 101 109 113
5.247477 -0.535611 11.462421 87 91 95
5.253294 -0.534660 11.443151 86 92 97
5.272704 -0.536372 11.432747 84 88 92
5.280990 -0.535904 11.415078 99 108 109
5.302804 -0.538069 11.406034 113 121 123
5.308871 -0.537166 11.386922 121 129 133
5.334589 -0.540067 11.380114 124 132 138
5.330090 -0.537125 11.354449 121 132 136
5.365621 -0.541895 11.353439 130 139 143
5.362176 -0.539164 11.328520 131 141 148
5.367034 -0.538035 11.308739 100 107 112
5.390990 -0.540552 11.300351 96 103 109
5.396482 -0.539545 11.280950 118 130 137
5.399563 -0.538084 11.260198 107 116 121
5.400595 -0.536244 11.238348 48 51 59
5.419136 -0.537714 11.226578 68 76 80
5.419102 -0.535683 11.204231 40 48 51
5.428415 -0.535415 11.187218 126 138 143
5.436846 -0.534982 11.169723 104 115 120
5.454325 -0.536237 11.157189 85 92 97
5.470966 -0.537329 11.144114 104 108 114
5.479762 -0.536959 11.126766 133 142 149
5.506062 -0.539826 11.118696 132 140 144
5.504307 -0.537505 11.095748 131 140 142
5.504633 -0.535578 11.074009 131 138 140
5.513018 -0.535139 11.056507 126 137 140
5.503575 -0.531441 11.029985 119 129 130
5.505691 -0.529871 11.009472 111 120 124
5.523399 -0.531143 10.996777 94 101 105
5.530128 -0.530416 10.978610 83 91 94
5.538319 -0.529957 10.961186 103 110 112
5.548882 -0.529927 10.944919 115 121 125
5.554016 -0.528920 10.926067 82 89 92
5.565676 -0.529089 10.910326 85 94 96
5.569762 -0.527900 10.891055 105 115 115
5.578387 -0.527527 10.873925 116 126 129
5.582445 -0.526343 10.854739 122 132 137
5.587605 -0.525359 10.836106 120 130 136
5.588610 -0.523645 10.815684 119 130 135
5.603638 -0.524413 10.801483 122 134 138
5.615358 -0.524595 10.785799 134 144 147
5.627919 -0.524922 10.770453 118 124 129
5.633718 -0.524063 10.752229 95 101 104
5.627748 -0.521152 10.729141 108 117 117
5.630352 -0.519750 10.709742 130 141 146
5.636698 -0.519003 10.691936 86 93 101
5.624640 -0.515072 10.666778 71 80 82
5.634308 -0.514914 10.650447 79 87 90
5.639438 -0.513974 10.632341 97 107 107
5.633001 -0.511050 10.609811 101 107 114
5.644221 -0.511168 10.594174 102 110 113
5.646354 -0.509730 10.575101 80 86 90
5.657207 -0.509786 10.559341 145 152 154
5.658219 -0.508167 10.539961 124 131 136
5.665080 -0.507548 10.522779 114 121 125
5.683176 -0.508832 10.509636 94 101 104
5.671147 -0.505025 10.485798 111 119 124
5.668653 -0.502841 10.465481 97 102 105
5.661560 -0.499896 10.443701 92 97 102
5.669704 -0.499516 10.427229 93 98 104
5.658026 -0.495827 10.404163 69 76 80
5.653189 -0.493295 10.383544 79 84 86
5.653463 -0.491625 10.364714 81 86 88
5.659924 -0.490988 10.347942 76 81 87
5.670301 -0.491002 10.332431 57 65 70
5.670763 -0.489379 10.313836 84 90 91
5.663713 -0.486527 10.293028 95 101 105
5.674354 -0.486593 10.277693 92 97 101
5.674359 -0.484916 10.259193 110 119 123
5.679204 -0.484037 10.242189 104 110 115
5.686399 -0.483545 10.225902 76 72 71
5.685596 -0.481754 10.207371 144 142 134
5.684546 -0.479932 10.188861 98 95 87
5.685104 -0.478378 10.170882 64 60 56
5.677557 -0.475524 10.150797 129 136 135
5.677538 -0.473894 10.132854 113 123 126
5.660306 -0.469510 10.110504 132 139 139
5.664798 -0.468624 10.093953 141 147 148
5.636354 -0.462482 10.069142 131 137 141
5.646622 -0.462536 10.054244 130 138 138
5.643409 -0.460447 10.036055 147 156 158
5.654453 -0.460627 10.021378 138 145 147
5.650777 -0.458478 10.003226 128 135 137
5.655712 -0.457697 9.987167 107 113 114
5.670798 -0.458517 9.973441 113 119 126
5.672124 -0.457171 9.956606 141 144 142
5.677961 -0.456538 9.940818 138 138 134
5.679674 -0.455264 9.924174 120 118 113
5.683718 -0.454358 9.908078 153 156 150
5.656601 -0.448610 9.885621 130 129 123
5.666198 -0.448584 9.870852 134 142 145
5.640866 -0.443154 9.849189 126 134 136
5.652715 -0.443487 9.834985 134 144 145
5.642716 -0.440454 9.816626 136 141 144
5.648531 -0.439864 9.801343 124 131 136
4.216138 -0.423563 12.038991 114 119 120
4.266805 -0.433157 12.072455 133 138 137
4.306913 -0.440255 12.093272 121 127 126
4.318820 -0.440840 12.082057 123 128 128
4.339732 -0.443475 12.080748 127 123 114
4.355456 -0.444912 12.073526 126 119 112
4.386193 -0.449743 12.082528 96 89 81
4.421036 -0.455468 12.095578 93 84 78
4.426360 -0.454503 12.076549 152 157 154
4.438723 -0.455123 12.065062 108 115 114
4.436477 -0.452469 12.038120 93 103 105
4.451130 -0.453601 12.029035 139 137 138
4.456244 -0.452604 12.009962 166 170 169
4.478364 -0.455380 12.008439 169 170 168
4.500535 -0.458148 12.006746 130 141 136
4.517888 -0.459836 11.999957 92 95 100
4.547902 -0.464289 12.005727 91 97 103
4.572193 -0.467461 12.005457 96 103 107
4.582550 -0.467574 11.991191 104 109 114
4.604716 -0.470250 11.988458 96 105 105
4.616964 -0.470761 11.975891 86 79 77
4.646190 -0.474931 11.979606 103 101 95
4.662131 -0.476215 11.970325 102 103 96
4.679484 -0.477793 11.962275 95 91 89
4.677396 -0.475206 11.935861 93 103 108
4.703395 -0.478615 11.935748 105 113 119
4.724620 -0.480989 11.930970 106 111 118
4.728573 -0.479692 11.910213 102 113 119
4.748454 -0.481761 11.903980 95 106 115
4.758420 -0.481732 11.888673 83 90 94
4.763365 -0.480649 11.868879 105 110 117
4.776960 -0.481380 11.856798 121 128 130
4.797490 -0.483549 11.850728 108 118 117
4.829772 -0.488142 11.854695 61 68 68
4.847178 -0.489628 11.845511 75 83 83
4.862321 -0.490637 11.834279 77 83 87
4.898272 -0.495916 11.840568 71 81 82
4.907784 -0.495742 11.824291 62 69 69
4.933338 -0.498846 11.821354 48 52 56
4.944549 -0.499008 11.806363 81 86 88
4.944071 -0.496795 11.781800 83 89 93
4.966167 -0.499164 11.775661 128 134 136
4.983211 -0.500498 11.765289 110 121 122
4.982091 -0.498168 11.740363 71 78 79
5.016847 -0.503047 11.743874 74 79 84
5.019618 -0.501500 11.722039 105 116 120
5.028964 -0.501272 11.705393 76 85 89
5.034268 -0.500241 11.685650 79 86 89
5.053586 -0.501992 11.676625 69 74 79
5.063972 -0.501967 11.660735 112 120 125
5.085142 -0.504065 11.652890 70 80 84
5.087493 -0.502455 11.630962 79 86 92
5.111882 -0.505166 11.625295 129 133 139
5.134701 -0.507554 11.618288 127 137 140
5.155325 -0.509500 11.609528 93 99 105
5.168451 -0.509979 11.595275 84 91 96
5.174813 -0.509146 11.576200 88 95 101
5.173205 -0.506780 11.551590 94 102 104
5.193363 -0.508611 11.542224 92 100 104
5.198922 -0.507633 11.522694 86 95 98
5.208903 -0.507504 11.506227 74 82 85
5.222136 -0.507995 11.491952 89 96 101
5.224078 -0.506337 11.470093 116 124 128
5.239184 -0.507181 11.457041 120 126 130
5.247659 -0.506767 11.439576 91 99 101
5.276996 -0.510283 11.435662 70 75 81
5.285382 -0.509844 11.418045 73 80 81
5.315184 -0.513415 11.414069 91 95 100
5.321605 -0.512601 11.395118 90 98 102
5.336399 -0.513349 11.381432 90 95 98
5.343161 -0.512600 11.362723 100 106 109
5.358958 -0.513527 11.349581 106 111 117
5.372659 -0.514062 11.335096 145 152 155
5.379967 -0.513415 11.316734 108 118 123
5.392203 -0.513676 11.301328 91 98 103
5.404476 -0.513941 11.285915 113 123 129
5.401417 -0.511406 11.261559 130 139 145
5.408697 -0.510766 11.243307 89 97 103
5.415790 -0.510094 11.224979 70 76 80
5.425534 -0.509905 11.208180 67 74 78
5.434176 -0.509518 11.190767 127 139 142
5.444327 -0.509403 11.174202 102 114 117
5.466672 -0.511475 11.164298 94 100 107
5.469005 -0.509954 11.143428 123 130 134
5.481873 -0.510321 11.128283 133 142 146
5.489724 -0.509792 11.110446 92 97 105
5.501903 -0.510033 11.094900 105 115 119
5.501211 -0.507995 11.072659 99 104 109
5.507781 -0.507248 11.054259 105 112 113
5.520126 -0.507521 11.038824 90 96 100
5.522800 -0.506094 11.018511 94 100 104
5.529339 -0.505351 11.000194 94 100 104
5.535678 -0.504576 10.981815 97 104 108
5.538607 -0.503210 10.961821 109 115 120
5.544388 -0.502347 10.943269 83 87 94
5.561639 -0.503472 10.930201 85 92 96
5.573552 -0.503668 10.914550 89 97 96
5.569743 -0.501157 10.891587 82 89 92
5.591121 -0.502982 10.880314 96 103 105
5.590651 -0.501056 10.859019 92 100 104
5.603975 -0.501495 10.844010 93 99 103
5.594536 -0.498054 10.818892 92 99 101
5.611766 -0.499160 10.805635 97 102 106
5.614293 -0.497769 10.785948 126 140 143
5.611881 -0.495550 10.764227 134 143 149
5.639280 -0.498364 10.755206 84 93 101
5.642120 -0.497036 10.735770 84 95 97
5.625310 -0.492421 10.708317 113 127 133
5.635992 -0.492425 10.692309 73 78 83
5.648293 -0.492698 10.676943 67 74 77
5.653026 -0.491710 10.658548 69 76 80
5.652103 -0.489789 10.637989 81 95 97
5.651312 -0.487898 10.617587 84 94 102
5.651618 -0.486198 10.597707 81 87 91
5.658418 -0.485574 10.580364 111 120 123
5.675298 -0.486607 10.566796 136 145 147
5.691169 -0.487468 10.552789 103 108 112
5.677700 -0.483535 10.528096 85 89 94
5.666681 -0.480020 10.504502 113 119 120
5.679866 -0.480453 10.489637 128 134 136
5.680346 -0.478825 10.470321 121 128 130
5.694505 -0.479414 10.455780 126 136 136
5.678075 -0.475070 10.430851 127 133 135
5.669537 -0.472017 10.408799 88 96 96
5.656538 -0.468263 10.385449 137 144 146
5.661407 -0.467384 10.368100 143 152 156
5.672233 -0.467460 10.352696 131 138 140
5.661370 -0.464083 10.330451 95 104 108
5.665653 -0.463127 10.313089 111 125 129
5.667501 -0.461789 10.295032 121 133 139
5.666402 -0.459992 10.276154 129 138 142
5.672620 -0.459355 10.259541 121 130 133
5.675879 -0.458256 10.242091 108 120 122
5.689303 -0.458755 10.227617 102 98 95
5.696480 -0.458274 10.211339 106 103 95
5.677999 -0.453794 10.187932 86 81 77
5.677418 -0.452119 10.169678 73 74 70
5.679331 -0.450839 10.152183 127 134 130
5.678835 -0.449192 10.134112 113 122 124
5.664765 -0.445456 10.112585 89 95 97
5.659875 -0.443153 10.093616 116 122 122
5.655473 -0.440934 10.074891 89 95 94
5.647590 -0.438193 10.055420 121 131 131
5.647937 -0.436722 10.038098 129 141 144
5.653815 -0.436101 10.022175 131 143 146
5.656748 -0.435034 10.005586 120 129 132
5.659844 -0.433997 9.989085 107 114 114
5.674796 -0.434759 9.975320 128 136 138
5.680779 -0.434162 9.959511 153 157 156
5.675563 -0.431880 9.941282 115 113 105
5.670324 -0.429605 9.923167 119 113 109
5.659657 -0.426526 9.904032 139 134 127
5.688957 -0.429439 9.893278 111 105 100
5.645936 -0.421548 9.867778 126 133 133
5.650500 -0.420776 9.852100 129 136 139
5.660488 -0.420812 9.837506 121 130 133
5.646327 -0.417270 9.818330 123 134 139
5.647135 -0.415957 9.802114 123 129 131
5.709464 -0.420838 9.764220 111 119 118
4.209839 -0.398913 12.030959 114 121 122
4.271629 -0.410608 12.077093 119 128 128
4.278411 -0.410055 12.060402 127 137 134
4.311932 -0.415398 12.073568 120 126 125
4.347386 -0.421128 12.088425 140 140 140
4.358734 -0.421541 12.076348 128 133 133
4.391474 -0.426616 12.087514 119 125 126
4.390049 -0.424229 12.061366 134 138 138
4.432672 -0.431400 12.082574 137 145 143
4.434597 -0.429734 12.059961 99 103 106
4.439691 -0.428761 12.040810 89 96 98
4.453249 -0.429607 12.030567 127 125 126
4.464475 -0.429949 12.017830 163 163 162
4.471090 -0.429306 12.000314 167 170 167
4.494324 -0.432194 11.999779 112 121 118
4.529058 -0.437495 12.010632 69 76 76
4.542343 -0.438236 11.999547 83 88 90
4.568974 -0.441776 12.001663 74 80 84
4.584857 -0.443041 11.992891 97 106 109
4.608984 -0.446017 11.992070 95 99 100
4.617861 -0.445800 11.976215 127 121 116
4.641245 -0.448591 11.974319 141 134 125
4.661290 -0.450673 11.969007 121 118 107
4.676502 -0.451745 11.958954 128 121 120
4.695005 -0.453485 11.951893 99 109 112
4.703647 -0.453193 11.935513 103 110 113
4.726830 -0.455870 11.932555 81 90 92
4.765612 -0.461702 11.943640 85 94 95
4.758767 -0.458243 11.912908 73 83 83
4.749218 -0.454259 11.879996 88 93 96
4.761204 -0.454639 11.866567 112 118 120
4.775347 -0.455448 11.855001 130 136 136
4.802353 -0.458826 11.854630 115 125 123
4.826856 -0.461682 11.851820 63 73 75
4.835150 -0.461294 11.834828 72 80 86
4.864369 -0.465058 11.835713 66 73 81
4.901355 -0.470331 11.842876 86 95 103
4.914642 -0.470901 11.829760 97 103 109
4.936497 -0.473150 11.823711 121 130 133
4.934278 -0.470669 11.797645 78 86 90
4.946991 -0.471118 11.783948 74 82 84
4.964663 -0.472527 11.774221 62 71 76
4.980552 -0.473582 11.762949 87 100 102
4.993538 -0.474067 11.749277 26 30 32
5.015150 -0.476211 11.742359 17 20 20
5.042610 -0.479465 11.739843 19 18 19
5.047271 -0.478330 11.719423 20 22 24
5.054955 -0.477778 11.701395 22 24 24
5.052311 -0.475262 11.675540 21 23 24
5.048409 -0.472521 11.648907 16 20 20
5.088793 -0.478178 11.655531 28 32 34
5.092610 -0.476899 11.634679 59 68 72
5.112255 -0.478605 11.625512 115 124 127
5.138462 -0.481531 11.620979 83 94 95
5.157246 -0.483050 11.610884 75 82 87
5.172707 -0.483940 11.598298 94 97 102
5.167128 -0.480911 11.570771 124 132 134
5.183871 -0.482038 11.559073 112 118 124
5.206342 -0.484214 11.551256 118 130 132
5.219162 -0.484599 11.536644 116 125 126
5.219694 -0.482724 11.513632 104 113 116
5.226917 -0.482084 11.495250 113 117 120
5.231021 -0.480877 11.474818 122 128 131
5.237470 -0.480103 11.456010 129 135 138
5.258470 -0.481975 11.446775 115 120 120
5.280876 -0.484089 11.438312 94 102 105
5.295040 -0.484702 11.424395 105 113 116
5.305686 -0.484678 11.408187 105 114 120
5.327750 -0.486701 11.399163 96 104 105
5.340068 -0.486969 11.383908 113 121 127
5.352660 -0.487282 11.368793 72 79 85
5.350370 -0.484946 11.344543 89 97 101
5.370873 -0.486665 11.334245 97 104 108
5.379930 -0.486349 11.316955 128 138 142
5.390125 -0.486234 11.300351 83 90 99
5.401621 -0.486348 11.284508 70 80 84
5.407052 -0.485396 11.265119 90 103 109
5.433940 -0.488201 11.258136 58 68 70
5.418859 -0.483672 11.227037 61 68 70
5.439966 -0.485459 11.216641 52 62 65
5.446867 -0.484772 11.198185 91 102 111
5.459154 -0.485020 11.182739 79 84 89
5.459136 -0.483143 11.160540 83 90 98
5.462367 -0.481835 11.140210 114 125 131
5.491572 -0.484986 11.133860 93 103 110
5.499814 -0.484534 11.116188 81 89 94
5.497953 -0.482362 11.093243 91 97 100
5.515217 -0.483453 11.080341 131 139 144
5.515073 -0.481585 11.058433 110 117 118
5.516230 -0.479947 11.037295 123 130 132
5.520163 -0.478784 11.017647 125 132 134
5.525740 -0.477904 10.998878 122 129 129
5.528929 -0.476627 10.978987 113 122 125
5.543685 -0.477291 10.964779 128 137 139
5.559393 -0.478108 10.950974 134 141 143
5.577275 -0.479282 10.938137 110 117 120
5.565114 -0.475466 10.911122 111 118 120
5.588465 -0.477544 10.900810 116 124 129
5.566570 -0.472146 10.869613 123 132 136
5.607277 -0.477074 10.867118 110 117 120
5.617387 -0.476956 10.850595 136 144 146
5.610837 -0.474111 10.826693 117 127 132
5.609810 -0.472182 10.805377 80 89 95
5.623050 -0.472584 10.790341 87 96 98
5.643917 -0.474221 10.778527 113 133 136
5.631832 -0.470515 10.752695 54 61 71
5.636711 -0.469566 10.734158 22 24 27
5.669524 -0.473118 10.727173 20 23 24
5.683907 -0.473692 10.712458 22 24 26
5.700378 -0.474596 10.698536 23 23 25
5.656058 -0.465784 10.660433 23 24 26
5.664261 -0.463685 10.623295 22 23 25
5.691189 -0.466259 10.613523 22 24 27
5.676984 -0.462318 10.588080 25 29 31
5.697210 -0.463825 10.575679 46 50 53
5.690202 -0.461040 10.553177 78 88 93
5.683507 -0.458319 10.530950 86 95 97
5.682137 -0.456443 10.510783 135 145 147
5.678267 -0.454187 10.489841 78 84 89
5.678676 -0.452607 10.470514 68 75 79
5.683575 -0.451731 10.452817 78 85 89
5.682296 -0.449903 10.433071 84 96 99
5.666564 -0.445852 10.408606 74 80 82
5.653412 -0.442218 10.385224 135 140 142
5.661404 -0.441850 10.368913 142 147 151
5.667564 -0.441202 10.352027 131 136 139
5.663443 -0.438985 10.331932 107 110 115
5.658125 -0.436597 10.311590 92 101 103
5.662282 -0.435660 10.294281 85 91 94
5.676950 -0.436322 10.280185 96 104 108
5.676018 -0.434619 10.261411 111 121 128
5.676109 -0.433079 10.243028 101 113 116
5.701131 -0.435298 10.231901 171 177 172
5.698753 -0.433392 10.212873 196 200 192
5.705350 -0.432838 10.196449 193 195 192
5.683010 -0.427963 10.172112 194 197 192
5.677609 -0.425637 10.152625 128 132 140
5.676917 -0.424021 10.134518 96 104 111
5.679641 -0.422918 10.117389 60 62 72
5.668326 -0.419745 10.096710 66 73 75
5.658617 -0.416822 10.076614 79 82 88
5.656858 -0.415084 10.058654 107 118 119
5.643776 -0.411691 10.038025 140 149 150
5.659178 -0.412486 10.024408 144 150 152
5.658417 -0.410915 10.006934 120 129 129
5.656319 -0.409156 9.989234 100 105 105
5.673901 -0.410266 9.976090 120 131 132
5.675218 -0.409011 9.959254 118 122 125
5.676826 -0.407803 9.942545 116 116 111
5.666127 -0.404825 9.923260 103 103 98
5.669612 -0.403902 9.907118 124 124 121
5.677347 -0.403593 9.891895 88 86 85
5.657412 -0.399321 9.871098 124 132 135
5.659510 -0.398218 9.854893 119 126 132
5.658643 -0.396697 9.838168 120 129 135
5.651536 -0.394294 9.820339 120 131 134
5.642304 -0.391601 9.802244 105 115 121
5.637456 -0.389541 9.785089 98 107 111
4.202459 -0.374177 12.021695 126 130 130
4.267987 -0.386203 12.072135 128 132 132
4.279994 -0.386780 12.061369 130 135 133
4.312926 -0.391780 12.073874 116 120 120
4.341662 -0.395860 12.081303 146 148 146
4.358560 -0.397422 12.075383 135 136 135
4.388421 -0.401688 12.083427 139 143 140
4.397232 -0.401530 12.068377 131 136 135
4.426315 -0.405589 12.075033 132 136 135
4.435078 -0.405407 12.059757 132 136 136
4.435038 -0.403406 12.035211 103 109 107
4.448516 -0.404202 12.024942 124 126 126
4.461047 -0.404796 12.013614 164 163 163
4.483047 -0.407322 12.011955 162 163 161
4.497977 -0.408390 12.002871 113 121 120
4.529574 -0.412834 12.010532 99 105 107
4.552090 -0.415410 12.008713 108 115 118
4.573527 -0.417749 12.005599 104 113 116
4.597274 -0.420537 12.004559 105 111 115
4.612138 -0.421525 11.994594 89 96 101
4.616962 -0.420499 11.974799 127 129 131
4.652079 -0.425511 11.984206 125 130 129
4.653726 -0.423846 11.961280 127 130 129
4.688221 -0.428690 11.969536 132 138 137
4.693561 -0.427752 11.950054 97 107 113
4.698456 -0.426732 11.930221 97 105 111
4.738374 -0.432578 11.942744 80 95 96
4.756463 -0.434123 11.934836 75 83 84
4.765132 -0.433823 11.918256 63 74 75
4.761993 -0.431234 11.891074 81 88 90
4.763713 -0.429600 11.868415 105 109 111
4.787439 -0.432217 11.865311 118 123 125
4.801391 -0.432939 11.853430 101 109 112
4.819683 -0.434486 11.845248 61 67 68
4.850189 -0.438355 11.847447 67 73 73
4.869934 -0.440150 11.840149 64 70 74
4.885794 -0.441195 11.829413 80 87 90
4.880338 -0.438201 11.800707 81 88 89
4.913660 -0.442537 11.804458 53 59 64
4.935736 -0.444730 11.798594 95 106 109
4.957345 -0.446821 11.792168 20 25 24
4.976773 -0.448491 11.783805 20 22 23
5.038795 -0.458080 11.809481 19 21 22
5.090936 -0.463772 11.801927 17 18 18
5.145920 -0.471924 11.820396 17 18 17
5.103438 -0.462101 11.762768 14 18 17
5.128010 -0.464631 11.757324 17 18 20
5.208537 -0.475358 11.769479 18 19 20
5.191545 -0.470271 11.732178 16 19 17
5.129123 -0.456986 11.661627 17 19 19
5.138491 -0.456742 11.644692 17 19 18
5.138190 -0.454759 11.620741 32 36 38
5.161253 -0.456979 11.613741 64 72 75
5.172890 -0.457141 11.598416 115 122 128
5.179813 -0.456459 11.579737 86 96 102
5.191018 -0.456543 11.564094 78 86 90
5.208328 -0.457708 11.552665 79 84 88
5.216287 -0.457211 11.534716 77 86 89
5.219226 -0.455832 11.513373 77 84 87
5.225165 -0.454987 11.494143 105 111 113
5.225071 -0.453088 11.470934 118 123 126
5.247391 -0.455117 11.462674 121 127 129
5.255389 -0.454637 11.444874 112 117 121
5.279763 -0.457004 11.437721 60 66 72
5.290402 -0.456977 11.421560 72 80 85
5.322644 -0.460679 11.419136 72 78 82
5.327700 -0.459678 11.399305 70 75 80
5.355379 -0.462566 11.393649 128 136 139
5.339933 -0.458055 11.361133 107 118 124
5.351758 -0.458223 11.345607 68 74 77
5.385950 -0.462196 11.343604 70 76 78
5.412458 -0.464841 11.336701 22 24 29
5.398757 -0.460666 11.305731 16 19 22
5.446216 -0.466833 11.310984 18 20 22
5.439925 -0.463921 11.284524 18 19 21
5.436713 -0.461541 11.260030 19 20 22
5.439960 -0.460255 11.239371 19 19 21
5.430290 -0.456820 11.211505 18 19 20
5.464024 -0.460623 11.208098 17 19 20
5.456721 -0.457597 11.181743 16 18 20
5.447054 -0.454197 11.154293 17 19 21
5.480775 -0.457970 11.150542 21 24 24
5.480009 -0.456049 11.128057 55 59 62
5.504327 -0.458253 11.118979 78 85 89
5.498960 -0.455588 11.094181 127 134 138
5.495940 -0.453319 11.070772 96 104 109
5.516676 -0.454927 11.059690 87 94 96
5.521202 -0.453895 11.040264 81 88 90
5.543700 -0.455775 11.029916 86 92 96
5.536906 -0.452919 11.004890 94 100 106
5.544529 -0.452396 10.987124 116 122 126
5.541341 -0.450142 10.964135 121 128 132
5.559562 -0.451324 10.951562 131 140 139
5.565499 -0.450538 10.933069 118 123 125
5.565535 -0.448817 10.911849 76 82 86
5.582662 -0.449817 10.898662 87 91 96
5.596468 -0.450285 10.883873 90 96 101
5.607181 -0.450261 10.867640 89 94 98
5.608198 -0.448710 10.847054 94 103 107
5.633383 -0.450960 10.837262 126 136 138
5.625258 -0.447984 10.812735 92 103 108
5.599995 -0.442347 10.780981 22 27 28
5.624424 -0.444476 10.770822 22 24 25
5.618460 -0.441873 10.747681 21 23 25
5.668649 -0.447979 10.748117 21 23 25
5.702360 -0.436632 10.558384 22 26 25
5.695704 -0.434017 10.536119 32 39 40
5.691445 -0.431775 10.514870 63 70 76
5.692193 -0.430292 10.495520 81 89 93
5.693817 -0.428947 10.476559 75 83 86
5.684771 -0.426020 10.454011 60 64 69
5.683145 -0.424209 10.434151 56 61 64
5.677155 -0.421760 10.412939 56 61 65
5.666428 -0.418623 10.390312 136 144 143
5.657854 -0.415819 10.368572 148 153 155
5.668481 -0.415850 10.353142 134 139 140
5.664279 -0.413706 10.333024 110 114 117
5.671580 -0.413254 10.316606 97 105 105
5.667616 -0.411161 10.296757 125 132 138
5.675892 -0.410859 10.280720 131 138 140
5.678763 -0.409773 10.263087 120 130 135
5.671525 -0.407228 10.242557 103 112 115
5.669809 -0.405493 10.223764 133 133 138
5.684334 -0.406104 10.209674 144 146 148
5.699768 -0.406842 10.195789 142 144 147
5.681831 -0.402795 10.172688 144 149 152
5.669250 -0.399532 10.151273 96 101 108
5.667776 -0.397869 10.133001 103 113 117
5.674026 -0.397311 10.116841 107 117 122
5.667308 -0.394916 10.097373 136 141 148
5.651065 -0.391184 10.075636 125 133 135
5.645267 -0.388944 10.056710 109 117 120
5.631040 -0.385528 10.035856 132 142 144
5.644342 -0.385994 10.021801 140 148 150
5.654506 -0.386018 10.006969 133 141 144
5.667015 -0.386368 9.992670 93 97 100
5.681864 -0.387043 9.978871 108 118 121
5.675749 -0.384798 9.960351 135 142 137
5.679715 -0.383961 9.944162 132 129 120
5.674511 -0.381859 9.926047 121 113 110
5.689394 -0.382540 9.912275 136 131 125
5.669162 -0.378380 9.891212 104 97 95
5.666437 -0.376646 9.873927 131 137 138
5.652588 -0.373394 9.854534 137 143 145
5.672083 -0.374716 9.841792 130 140 142
5.656961 -0.371310 9.822391 134 142 146
5.646140 -0.368505 9.803982 118 128 135
5.637152 -0.365961 9.786064 99 110 115
4.194460 -0.349480 12.011732 145 148 147
4.244545 -0.357854 12.044748 142 146 144
4.281695 -0.363537 12.062469 124 129 128
4.314306 -0.368258 12.074612 105 111 109
4.343715 -0.372298 12.082783 85 95 94
4.365653 -0.374805 12.082390 91 97 98
4.392309 -0.378240 12.086895 76 81 81
4.402498 -0.378357 12.073317 100 104 106
4.419048 -0.379741 12.066523 110 113 115
4.438181 -0.381626 12.062338 121 128 128
4.446981 -0.381453 12.047093 99 107 107
4.450610 -0.380259 12.026450 150 153 151
4.467358 -0.381652 12.019489 161 163 164
4.476593 -0.381562 12.004676 165 169 168
4.503706 -0.384964 12.008076 130 136 133
4.529769 -0.388137 12.010110 70 77 75
4.555449 -0.391214 12.011475 87 91 93
4.566588 -0.391458 11.998111 69 77 78
4.598314 -0.395667 12.005008 98 106 110
4.602656 -0.394586 11.984762 101 110 114
4.624754 -0.396912 11.981811 120 123 127
4.640219 -0.397955 11.972273 126 129 130
4.666077 -0.400967 11.972543 126 131 131
4.694100 -0.404369 11.974594 106 111 110
4.700946 -0.403746 11.956494 123 128 125
4.690205 -0.399813 11.922085 83 93 96
4.729275 -0.405256 11.933903 80 87 92
4.735559 -0.404528 11.915292 85 90 96
4.760856 -0.407350 11.913959 99 106 113
4.762951 -0.405839 11.891531 78 85 88
4.784807 -0.407999 11.886820 102 107 108
4.792640 -0.407554 11.869533 112 117 120
4.800972 -0.407202 11.852706 96 102 103
4.826569 -0.410020 11.850884 75 81 86
4.846181 -0.411725 11.843669 86 98 104
4.860082 -0.412376 11.831429 99 111 113
4.897934 -0.417376 11.839384 107 117 119
4.906271 -0.416995 11.822172 45 52 56
4.984035 -0.429157 11.862689 48 54 56
5.033232 -0.436097 11.878675 22 23 22
5.089225 -0.444212 11.899643 18 22 22
5.147907 -0.452757 11.922126 19 19 20
5.229413 -0.465320 11.962227 17 18 19
5.183410 -0.455127 11.899905 18 18 20
5.225072 -0.456576 11.856797 16 18 19
5.401297 -0.477441 11.862954 18 19 19
5.248862 -0.449069 11.725562 17 18 19
5.172134 -0.433924 11.645359 16 20 18
5.184535 -0.434195 11.630473 23 24 24
5.166024 -0.429164 11.593508 24 30 31
5.180132 -0.429737 11.579966 75 82 84
5.185317 -0.428786 11.560120 73 79 83
5.200620 -0.429558 11.547351 64 68 71
5.216812 -0.430475 11.535122 65 69 73
5.220404 -0.429257 11.514235 54 60 62
5.234524 -0.429819 11.500526 100 104 107
5.228302 -0.426961 11.473180 114 119 121
5.241571 -0.427382 11.458928 119 123 125
5.258726 -0.428448 11.447177 99 107 111
5.283655 -0.430800 11.440377 54 59 62
5.293010 -0.430553 11.423382 51 57 63
5.322367 -0.433616 11.419120 54 58 61
5.333499 -0.433654 11.403133 78 83 89
5.339178 -0.432793 11.383728 69 80 81
5.354827 -0.433572 11.370536 84 92 97
5.378804 -0.435707 11.362367 21 22 26
5.403193 -0.437896 11.354278 19 23 22
5.390458 -0.434036 11.323752 19 20 20
5.482654 -0.445398 11.332671 17 18 19
5.527120 -0.447155 11.289364 16 17 19
5.490582 -0.429072 11.112095 18 20 22
5.487559 -0.426887 11.088615 51 56 62
5.527768 -0.431466 11.087698 81 89 91
5.515638 -0.427866 11.059593 90 96 102
5.529795 -0.428368 11.045072 65 71 78
5.532709 -0.427125 11.024859 85 92 94
5.548035 -0.427805 11.010885 78 86 89
5.548076 -0.426126 10.989348 112 120 122
5.553488 -0.425281 10.970526 117 124 128
5.554079 -0.423701 10.949436 129 136 138
5.560925 -0.423084 10.931416 111 118 121
5.575025 -0.423575 10.916831 85 93 96
5.589134 -0.424063 10.902205 96 104 109
5.585927 -0.421925 10.879591 104 112 113
5.603940 -0.423003 10.866736 93 100 104
5.605910 -0.421657 10.846605 77 83 87
5.612779 -0.421054 10.828726 42 45 51
5.649386 -0.424911 10.823895 22 26 24
5.615546 -0.418215 10.788313 20 22 21
6.034606 -0.470278 10.834263 18 20 19
5.688088 -0.405196 10.514428 22 24 25
5.692240 -0.404259 10.496304 29 33 34
5.687232 -0.402018 10.475042 126 135 136
5.692162 -0.401204 10.457333 123 132 137
5.673275 -0.397007 10.431598 113 123 128
5.673332 -0.395518 10.412459 75 80 84
5.659804 -0.392114 10.388934 127 133 135
5.658002 -0.390381 10.369431 131 137 137
5.663476 -0.389680 10.352361 123 128 130
5.674425 -0.389749 10.337052 103 108 113
5.671323 -0.387851 10.317362 56 65 71
5.678230 -0.387360 10.300852 82 88 93
5.665388 -0.384119 10.278404 90 97 100
5.664763 -0.382592 10.259789 120 126 133
5.670633 -0.381971 10.243163 140 147 147
5.667797 -0.380150 10.224059 152 153 160
5.671074 -0.379179 10.206797 134 140 144
5.676945 -0.378570 10.190312 93 98 100
5.685047 -0.378269 10.174470 120 125 131
5.666530 -0.374326 10.151441 105 114 118
5.673553 -0.373889 10.135448 94 100 105
5.664229 -0.371227 10.115196 93 100 106
5.672841 -0.371013 10.099720 55 61 62
5.664866 -0.368554 10.080052 105 111 113
5.652748 -0.365545 10.059503 109 116 117
5.639586 -0.362411 10.038879 111 119 121
5.633934 -0.360301 10.020247 134 141 144
5.642628 -0.360124 10.005123 115 121 126
5.669216 -0.362341 9.994143 90 95 99
5.683278 -0.362875 9.980165 113 122 124
5.687328 -0.362073 9.963913 105 113 111
5.682266 -0.360064 9.945706 113 114 106
5.680377 -0.358485 9.928298 124 122 119
5.682348 -0.357422 9.911792 132 130 123
5.686663 -0.356673 9.895826 106 100 99
5.667858 -0.352888 9.875221 123 133 136
5.662556 -0.350890 9.857520 145 153 154
5.656199 -0.348764 9.839728 140 146 146
5.653001 -0.347060 9.822660 145 152 154
5.644855 -0.344719 9.804769 126 132 135
5.724255 -0.351183 9.769973 125 135 137
4.176107 -0.322928 11.989952 141 145 143
4.237509 -0.333159 12.035958 146 149 149
4.292288 -0.342028 12.073560 150 153 151
4.315190 -0.344649 12.074797 140 147 143
4.346644 -0.348905 12.085232 117 119 119
4.374547 -0.352446 12.091368 87 91 90
4.391152 -0.353791 12.084875 58 64 62
4.404962 -0.354592 12.075229 61 66 67
4.419004 -0.355430 12.065746 103 105 105
4.438640 -0.357325 12.062110 112 117 113
4.454967 -0.358579 12.054805 97 100 97
4.453632 -0.356490 12.028929 149 150 150
4.462357 -0.356306 12.013647 156 160 159
4.483997 -0.358544 12.011637 162 164 163
4.486416 -0.357174 11.989828 140 149 144
4.530563 -0.363583 12.010292 69 74 74
4.563612 -0.367889 12.019051 56 63 63
4.571949 -0.367593 12.002849 51 54 56
4.588639 -0.368839 11.994895 60 71 69
4.603792 -0.369792 11.985314 39 44 45
4.630174 -0.372795 11.986520 42 44 44
4.640151 -0.372782 11.971679 58 60 60
4.669348 -0.376266 11.975146 98 102 101
4.686300 -0.377505 11.966720 33 37 37
4.691326 -0.376579 11.946993 69 72 75
4.702455 -0.376758 11.933006 61 68 71
4.742941 -0.382206 11.946046 84 91 93
4.738775 -0.379626 11.917796 57 59 60
4.753885 -0.380500 11.907222 80 81 85
4.780701 -0.383449 11.907075 86 92 97
4.786410 -0.382637 11.887858 111 113 116
