ply
format ascii 1.0
element vertex 1253
property float x
property float y
property float z
property uchar blue
property uchar green
property uchar red
end_header
0.069692 0.241037 2.526042 64 88 103
0.073480 0.241336 2.523740 72 99 114
0.078251 0.241148 2.525415 84 120 140
0.082475 0.241228 2.524906 97 119 132
0.087336 0.241008 2.526847 110 133 148
0.091805 0.240976 2.527252 118 139 154
0.095740 0.241186 2.525682 101 116 129
0.100279 0.241122 2.526348 86 103 118
0.104612 0.241150 2.526266 122 144 156
0.109110 0.241106 2.526762 105 120 129
0.113525 0.241100 2.526959 119 141 151
0.119102 0.240614 2.531083 111 128 134
0.122902 0.240866 2.529161 98 114 124
0.127366 0.240845 2.529477 95 107 118
0.131957 0.240775 2.530196 113 126 135
0.136744 0.240631 2.531518 107 126 134
0.140774 0.240782 2.530426 128 152 165
0.144970 0.240866 2.529884 122 139 147
0.150328 0.240516 2.532897 138 157 167
0.154958 0.240443 2.533638 121 136 149
0.160595 0.240009 2.537345 101 122 127
0.164653 0.240149 2.536340 98 111 120
0.169927 0.239859 2.538863 113 127 135
0.173877 0.240036 2.537561 112 122 124
0.178587 0.239949 2.538423 106 119 124
0.183292 0.239865 2.539253 131 151 159
0.187956 0.239798 2.539947 81 97 109
0.193548 0.239428 2.543129 100 120 137
0.198304 0.239339 2.544007 61 78 90
0.219005 0.235631 2.574764 56 73 85
0.225556 0.235031 2.579838 59 77 86
0.229230 0.235335 2.577494 56 72 84
0.234605 0.235113 2.579473 61 78 87
0.239445 0.235058 2.580080 65 83 92
0.242997 0.235387 2.577521 59 75 84
0.246405 0.235752 2.574674 65 80 89
0.250891 0.235795 2.574473 61 77 86
0.252895 0.236551 2.568404 61 74 84
0.256748 0.236765 2.566797 70 85 94
0.258114 0.237674 2.559470 68 92 102
0.260622 0.238245 2.554919 116 143 154
0.264500 0.238427 2.553567 118 133 145
0.270198 0.238110 2.556322 134 152 164
0.274176 0.238264 2.555208 140 156 167
0.277672 0.238543 2.553061 113 124 132
0.282559 0.238449 2.553978 120 134 142
0.287949 0.238227 2.555961 117 138 154
0.294758 0.237642 2.560923 119 138 155
0.300402 0.237367 2.563335 94 104 109
0.308563 0.236461 2.570952 118 124 131
-0.393482 0.232539 2.633276 220 199 180
-0.387915 0.232894 2.630425 220 200 179
-0.383317 0.232752 2.631799 130 143 147
-0.377914 0.233037 2.629538 140 156 167
-0.371983 0.233627 2.624696 136 155 164
-0.366474 0.234004 2.621657 125 143 157
-0.361154 0.234289 2.619401 95 122 135
-0.354824 0.235184 2.611953 80 107 124
-0.285334 0.245176 2.528834 104 123 131
-0.280621 0.245454 2.526616 97 113 125
-0.276535 0.245194 2.528976 125 138 149
-0.271975 0.245351 2.527788 107 121 128
-0.267702 0.245244 2.528849 124 134 141
-0.263042 0.245513 2.526705 102 116 124
-0.258646 0.245530 2.526710 122 147 165
-0.254363 0.245425 2.527746 112 134 148
-0.250249 0.245118 2.530517 87 108 123
-0.246291 0.244595 2.535120 65 85 100
-0.243474 0.242594 2.552331 58 73 89
-0.239331 0.242122 2.556515 62 78 93
-0.234790 0.242148 2.556443 64 81 94
-0.230496 0.241811 2.559469 65 82 95
-0.226176 0.241472 2.562513 60 76 91
-0.221609 0.241497 2.562458 61 76 91
-0.216863 0.241846 2.559630 61 77 92
-0.212516 0.241476 2.562946 57 74 86
-0.207962 0.241475 2.563107 57 71 83
-0.203398 0.241493 2.563102 58 73 85
-0.198633 0.242022 2.558746 56 74 86
-0.193833 0.242766 2.552544 61 79 92
-0.188924 0.244047 2.541751 63 77 91
-0.183991 0.245789 2.527014 52 71 83
-0.179469 0.246375 2.522152 60 75 89
-0.175050 0.246670 2.519776 99 117 133
-0.170676 0.246823 2.518616 123 143 160
-0.166318 0.246933 2.517827 120 142 155
-0.161992 0.246710 2.519876 112 130 142
-0.157634 0.246884 2.518540 108 131 147
-0.153289 0.246950 2.518123 130 153 163
-0.148958 0.247203 2.516101 101 127 144
-0.144620 0.247172 2.516514 96 116 129
-0.140296 0.247268 2.515836 81 100 114
-0.135974 0.247335 2.515411 130 153 163
-0.131678 0.247508 2.514077 120 132 141
-0.127339 0.247455 2.514679 125 143 157
-0.123078 0.247685 2.512856 91 110 119
-0.118794 0.247796 2.512051 87 99 108
-0.114389 0.247563 2.514194 91 106 119
-0.110120 0.247702 2.513150 96 110 123
-0.105829 0.247771 2.512699 103 118 131
-0.101555 0.247865 2.512044 111 132 149
-0.097204 0.247804 2.512714 123 148 163
-0.092924 0.247874 2.512260 129 151 163
-0.088623 0.247903 2.512150 137 160 172
-0.084207 0.247756 2.513557 65 86 100
-0.079931 0.247828 2.513087 84 106 119
-0.075401 0.247551 2.515608 88 116 136
-0.070949 0.247403 2.517026 99 125 147
-0.041098 0.239189 2.588296 62 81 95
-0.035924 0.238713 2.592545 56 76 90
-0.031591 0.239060 2.589722 59 78 92
-0.026791 0.238962 2.590728 60 77 88
-0.021775 0.238684 2.593269 56 73 85
-0.017175 0.238775 2.592652 61 77 88
-0.012211 0.238565 2.594609 54 69 81
-0.006954 0.238141 2.598420 58 75 85
-0.002467 0.238328 2.596971 56 76 87
0.002571 0.238098 2.599108 56 77 86
0.007544 0.237930 2.600715 54 70 82
0.012672 0.237664 2.603164 56 73 87
0.017248 0.237786 2.602273 57 75 87
0.021501 0.238114 2.599610 60 76 86
0.026156 0.238169 2.599296 65 81 90
0.030843 0.238202 2.599176 58 74 85
0.035137 0.238472 2.597008 54 73 82
0.039711 0.238564 2.596378 55 75 84
0.044221 0.238689 2.595459 61 78 85
0.048966 0.238676 2.595734 59 75 82
0.053284 0.238900 2.593961 50 66 76
0.057440 0.239202 2.591520 45 61 72
0.061380 0.239606 2.588197 48 64 76
0.074161 0.246792 2.527160 68 86 96
0.078049 0.247026 2.525285 71 96 108
0.082653 0.246930 2.526268 94 128 147
0.086499 0.247172 2.524324 102 126 141
0.091122 0.247069 2.525360 110 132 147
0.095366 0.247132 2.524968 105 124 140
0.099246 0.247345 2.523273 75 96 108
0.103838 0.247258 2.524174 121 146 158
0.108715 0.247059 2.526042 124 139 146
0.112730 0.247211 2.524882 131 152 160
0.117837 0.246929 2.527459 103 120 130
0.122189 0.246949 2.527441 96 111 120
0.126364 0.247035 2.526844 111 127 139
0.131533 0.246747 2.529483 104 117 130
0.135287 0.246989 2.527535 116 132 143
0.140582 0.246666 2.530482 113 142 154
0.144236 0.246939 2.528269 141 161 170
0.148381 0.247031 2.527620 110 131 142
0.154394 0.246473 2.532600 136 152 166
0.159092 0.246380 2.533550 113 135 141
0.163229 0.246480 2.532835 100 116 121
0.168182 0.246306 2.534491 114 133 139
0.173383 0.246056 2.536811 113 123 127
0.177691 0.246102 2.536563 113 126 128
0.182095 0.246116 2.536592 131 148 156
0.185959 0.246300 2.535143 126 143 156
0.192735 0.245573 2.541591 64 79 94
0.222125 0.240784 2.583549 56 72 85
0.225925 0.241043 2.581462 60 75 86
0.231097 0.240895 2.582907 59 75 84
0.236538 0.240672 2.584993 66 83 92
0.240139 0.240981 2.582476 67 84 93
0.245063 0.240909 2.583255 57 73 80
0.248596 0.241228 2.580650 62 77 83
0.253301 0.241216 2.580912 57 75 84
0.255645 0.241848 2.575580 58 75 83
0.260005 0.241923 2.575086 63 77 83
0.261715 0.242704 2.568468 65 82 89
0.263019 0.243575 2.561063 101 123 131
0.266296 0.243912 2.558288 106 125 140
0.268677 0.244473 2.553565 84 105 118
0.272709 0.244602 2.552605 126 148 160
0.277208 0.244609 2.552692 116 129 137
0.281196 0.244745 2.551666 124 137 143
0.286811 0.244475 2.554164 123 143 158
0.293415 0.243969 2.558717 128 146 165
0.299814 0.243523 2.562751 94 102 113
-0.392971 0.239303 2.631629 222 198 178
-0.387684 0.239508 2.629960 212 193 171
-0.382932 0.239454 2.630616 108 130 139
-0.377419 0.239785 2.627809 150 163 178
-0.371846 0.240162 2.624592 137 156 169
-0.365710 0.240857 2.618526 137 162 176
-0.360043 0.241326 2.614474 103 127 142
-0.294611 0.250662 2.532305 100 119 140
-0.289863 0.250925 2.530089 107 138 147
-0.285170 0.251162 2.528110 85 105 117
-0.280562 0.251345 2.526613 76 92 104
-0.276030 0.251477 2.525581 100 117 131
-0.271748 0.251400 2.526423 104 118 125
-0.267492 0.251293 2.527546 113 127 134
-0.262952 0.251443 2.526344 113 125 131
-0.258640 0.251382 2.527043 131 152 166
-0.254316 0.251327 2.527702 101 124 138
-0.250589 0.250625 2.534182 79 98 115
-0.247800 0.248802 2.550771 61 78 93
-0.244078 0.247894 2.559119 64 81 93
-0.239424 0.248046 2.557908 66 81 94
-0.235375 0.247420 2.563708 68 82 95
-0.230789 0.247465 2.563462 65 79 90
-0.226219 0.247491 2.563392 65 78 89
-0.221838 0.247219 2.566007 63 79 90
-0.217115 0.247487 2.563746 63 79 93
-0.212599 0.247416 2.564550 65 81 95
-0.207979 0.247537 2.563615 69 84 97
-0.203417 0.247551 2.563643 64 82 92
-0.198706 0.247924 2.560435 61 82 93
-0.193948 0.248504 2.555356 63 81 95
-0.188523 0.251231 2.530869 64 80 91
-0.183982 0.251720 2.526612 60 81 91
-0.179463 0.252278 2.521715 64 79 93
-0.175073 0.252441 2.520395 98 115 132
-0.170681 0.252695 2.518255 122 144 159
-0.166340 0.252693 2.518422 110 133 145
-0.161998 0.252692 2.518580 117 134 143
-0.157651 0.252822 2.517560 110 132 148
-0.153313 0.252950 2.516555 132 153 168
-0.148985 0.253061 2.515700 101 134 153
-0.144665 0.253167 2.514893 89 121 139
-0.140337 0.253157 2.515132 87 105 125
-0.136000 0.253108 2.515734 113 138 151
-0.131737 0.253407 2.513176 112 128 137
-0.127399 0.253337 2.513963 123 144 161
-0.123096 0.253401 2.513535 89 109 118
-0.118828 0.253552 2.512318 87 103 113
-0.114535 0.253608 2.511956 97 113 126
-0.110218 0.253603 2.512153 90 108 120
-0.105940 0.253680 2.511610 98 115 129
-0.101638 0.253701 2.511573 107 131 150
-0.097373 0.253786 2.510949 114 144 160
-0.093007 0.253696 2.511923 129 155 168
-0.088794 0.253851 2.510668 120 145 159
-0.084523 0.253906 2.510317 88 115 128
-0.080054 0.253689 2.512437 102 126 143
-0.075737 0.253691 2.512571 100 122 141
-0.045780 0.245362 2.588981 60 79 93
-0.041138 0.245402 2.588777 62 82 97
-0.036275 0.245238 2.590439 57 76 89
-0.031698 0.245339 2.589684 59 78 90
-0.026575 0.244970 2.593202 63 83 95
-0.021611 0.244757 2.595303 55 73 85
-0.016741 0.244635 2.596574 53 69 77
-0.011928 0.244565 2.597375 56 73 84
-0.007038 0.244443 2.598650 53 72 83
-0.002325 0.244458 2.598686 59 76 86
0.003137 0.243950 2.603474 57 73 84
0.008015 0.243867 2.604392 54 71 84
0.012731 0.243896 2.604295 45 65 79
0.017229 0.244064 2.602938 55 73 85
0.021860 0.244140 2.602407 57 74 85
0.026767 0.244046 2.603426 60 76 87
0.031611 0.243995 2.604063 58 77 86
0.035683 0.244391 2.600622 50 69 82
0.040193 0.244523 2.599590 53 71 83
0.044716 0.244641 2.598678 53 68 78
0.049496 0.244617 2.599062 50 66 74
0.054005 0.244736 2.598140 56 73 84
0.058442 0.244888 2.596924 57 70 82
0.062785 0.245080 2.595334 59 79 88
0.065726 0.245952 2.587554 53 73 84
0.078098 0.252786 2.526150 72 91 101
0.082445 0.252805 2.526130 105 136 153
0.086194 0.253075 2.523825 117 147 167
0.090793 0.252986 2.524793 102 123 136
0.094930 0.253086 2.524025 100 125 144
0.099197 0.253132 2.523757 76 95 112
0.103670 0.253097 2.524234 124 150 162
0.108016 0.253112 2.524254 122 137 145
0.111813 0.253334 2.522381 128 148 159
0.116308 0.253290 2.522934 134 154 165
0.120867 0.253224 2.523690 115 129 136
0.126222 0.252875 2.527034 99 117 129
0.130721 0.252840 2.527512 113 129 140
0.134513 0.253052 2.525723 121 135 145
0.140679 0.252444 2.531442 113 138 154
0.144137 0.252770 2.528617 122 141 151
0.147897 0.252986 2.526795 123 144 158
0.153634 0.252546 2.530970 142 160 175
0.157936 0.252584 2.530777 116 139 146
0.162840 0.252430 2.532349 99 117 127
0.167747 0.252278 2.533891 107 123 133
0.172720 0.252111 2.535580 119 131 133
0.177072 0.252139 2.535479 123 131 136
0.180948 0.252310 2.534065 114 131 139
0.186448 0.251992 2.537132 119 138 154
0.191002 0.251962 2.537568 63 77 92
0.217416 0.246935 2.583977 69 85 96
0.222653 0.246776 2.585603 72 89 100
0.225108 0.247400 2.580040 70 84 95
0.231168 0.247012 2.583766 65 78 86
0.236181 0.246919 2.584780 64 80 88
0.241264 0.246810 2.585942 62 79 88
0.245544 0.246919 2.585112 59 75 85
0.249743 0.247046 2.584103 60 77 86
0.253909 0.247180 2.583043 58 71 77
0.257137 0.247552 2.579783 56 70 78
0.261846 0.247539 2.580067 61 75 84
0.263384 0.248326 2.572999 66 82 89
0.265267 0.249011 2.566875 87 109 116
0.265842 0.250003 2.557915 110 134 140
0.268624 0.250436 2.554099 103 128 143
0.271903 0.250739 2.551466 121 146 158
0.276544 0.250711 2.551883 116 130 134
0.281138 0.250695 2.552188 131 139 143
0.286366 0.250531 2.553856 118 140 155
0.290688 0.250581 2.553558 128 149 162
0.295985 0.250406 2.555326 105 124 138
0.299432 0.250655 2.553193 103 111 119
-0.392893 0.245841 2.631845 220 197 180
-0.386864 0.246379 2.626901 199 187 163
-0.381683 0.246539 2.625554 125 139 142
-0.376675 0.246622 2.624938 135 153 167
-0.289744 0.256870 2.529717 136 153 165
-0.284517 0.257492 2.523936 132 153 166
-0.280174 0.257480 2.524206 112 130 137
-0.275785 0.257504 2.524142 119 134 144
-0.271694 0.257283 2.526412 114 131 138
-0.267311 0.257293 2.526473 123 139 145
-0.262841 0.257380 2.525803 112 127 136
-0.258522 0.257335 2.526398 109 125 137
-0.254177 0.257309 2.526804 101 129 142
-0.251104 0.255995 2.539530 72 91 106
-0.248340 0.254225 2.556625 65 81 94
-0.244151 0.253863 2.560258 67 81 93
-0.239880 0.253555 2.563366 62 78 92
-0.235640 0.253174 2.567185 74 87 100
-0.230887 0.253417 2.565024 68 80 93
-0.226283 0.253483 2.564558 71 82 91
-0.221678 0.253557 2.564012 65 77 90
-0.217170 0.253486 2.564854 70 85 100
-0.212623 0.253469 2.565183 66 82 97
-0.208036 0.253521 2.564852 70 84 97
-0.203455 0.253571 2.564539 70 87 97
-0.198701 0.254016 2.560447 72 87 97
-0.193993 0.254444 2.556508 68 81 95
-0.183818 0.258138 2.521413 64 84 92
-0.179492 0.258034 2.522566 60 75 86
-0.175055 0.258397 2.519238 87 103 118
-0.170689 0.258533 2.518093 132 155 172
-0.166349 0.258558 2.518018 99 124 135
-0.162018 0.258475 2.518973 110 130 143
-0.157666 0.258747 2.516512 108 128 142
-0.153337 0.258916 2.515054 121 145 161
-0.149023 0.259079 2.513644 87 110 127
-0.144692 0.258952 2.515020 119 145 159
-0.140411 0.259248 2.512333 90 105 124
-0.136073 0.259111 2.513807 128 152 164
-0.131802 0.259317 2.511988 120 137 144
-0.127514 0.259394 2.511400 122 147 161
-0.123235 0.259483 2.510705 100 122 134
-0.118947 0.259530 2.510407 88 102 110
-0.114623 0.259483 2.511024 97 114 124
-0.110326 0.259507 2.510949 97 114 125
-0.106098 0.259660 2.509636 95 112 122
-0.101756 0.259587 2.510489 108 132 147
-0.097419 0.259536 2.511137 115 144 160
-0.093211 0.259691 2.509800 118 143 157
-0.088984 0.259800 2.508916 139 159 174
-0.084547 0.259614 2.510859 84 110 127
-0.080354 0.259760 2.509611 92 112 128
-0.049826 0.250910 2.595696 61 81 95
-0.045407 0.251188 2.593194 63 83 98
-0.040510 0.251011 2.595064 68 86 99
-0.036151 0.251316 2.592295 59 76 88
-0.030812 0.250783 2.597613 61 79 92
-0.026172 0.250851 2.597131 56 73 88
-0.020983 0.250489 2.600795 57 74 84
-0.016538 0.250709 2.598841 55 73 81
-0.011589 0.250551 2.600537 56 73 83
-0.006709 0.250453 2.601661 51 68 77
-0.001575 0.250190 2.604375 56 70 81
0.003249 0.250146 2.604973 52 66 78
0.008110 0.250083 2.605756 60 79 91
0.012523 0.250300 2.603826 56 77 89
0.017833 0.249967 2.607220 54 75 87
0.022179 0.250217 2.604981 56 76 89
0.026944 0.250215 2.605171 52 70 82
0.031548 0.250304 2.604486 48 64 76
0.036176 0.250376 2.603961 51 66 80
0.041285 0.250190 2.605932 55 72 85
0.045822 0.250310 2.604953 53 71 83
0.050111 0.250549 2.602807 53 67 80
0.054490 0.250734 2.601193 50 63 75
0.058738 0.250974 2.599044 51 65 76
0.063389 0.251015 2.598825 52 69 81
0.066718 0.251664 2.592715 61 76 89
0.073421 0.252864 2.581437 57 76 87
0.085390 0.259160 2.521419 73 94 104
0.090254 0.258968 2.523437 116 148 164
0.095110 0.258787 2.525356 106 128 141
0.099274 0.258871 2.524699 67 92 113
0.103225 0.259031 2.523312 128 154 168
0.107041 0.259235 2.521493 119 137 149
0.111604 0.259166 2.522316 101 123 134
0.115698 0.259265 2.521521 128 149 161
0.120174 0.259229 2.522028 88 104 111
0.125604 0.258871 2.525660 110 128 140
0.130614 0.258665 2.527821 96 110 121
0.135291 0.258575 2.528859 117 133 142
0.139743 0.258561 2.529157 114 138 153
0.144199 0.258546 2.529461 121 141 149
0.147900 0.258769 2.527457 112 136 150
0.152483 0.258713 2.528162 119 143 159
0.157390 0.258560 2.529809 98 123 139
0.162446 0.258367 2.531850 88 111 128
0.166587 0.258451 2.531195 115 131 141
0.171555 0.258290 2.532914 119 131 135
0.176588 0.258116 2.534772 127 138 142
0.180337 0.258312 2.533023 97 114 119
0.184808 0.258301 2.533296 120 141 158
0.217815 0.252967 2.585710 65 82 92
0.221665 0.253190 2.583712 68 85 95
0.226196 0.253228 2.583515 71 85 94
0.231007 0.253192 2.584036 70 82 91
0.236049 0.253098 2.585126 64 79 88
0.241084 0.253008 2.586173 65 81 90
0.245228 0.253144 2.585014 64 80 90
0.249204 0.253320 2.583473 71 86 97
0.255000 0.253044 2.586333 56 69 78
0.258293 0.253383 2.583197 53 67 75
0.263906 0.253157 2.585568 62 77 85
0.265719 0.253840 2.579080 69 87 94
0.264614 0.255194 2.566037 77 94 100
0.266550 0.255812 2.560177 98 121 131
0.269030 0.256292 2.555661 105 130 143
0.271928 0.256666 2.552172 123 142 154
0.276424 0.256673 2.552268 111 121 124
0.280176 0.256846 2.550743 141 148 153
0.284645 0.256858 2.550796 118 136 147
0.289502 0.256784 2.551678 120 143 156
0.293584 0.256880 2.550904 116 142 163
-0.392691 0.252427 2.631525 216 199 179
-0.381747 0.252971 2.626384 114 132 139
-0.375908 0.253426 2.621953 138 150 167
-0.370542 0.253681 2.619546 138 159 173
-0.289701 0.262752 2.529861 136 151 163
-0.284564 0.263276 2.524702 117 138 149
-0.280233 0.263257 2.525061 99 117 126
-0.275413 0.263599 2.521749 122 141 150
-0.271338 0.263391 2.524029 105 120 131
-0.267054 0.263333 2.524790 132 149 155
-0.262562 0.263444 2.523827 116 135 142
-0.258656 0.263052 2.527977 102 120 135
-0.251371 0.261660 2.542492 71 92 107
-0.248803 0.259792 2.561691 68 87 102
-0.243960 0.260113 2.558598 77 89 103
-0.239855 0.259654 2.563449 74 89 101
-0.235398 0.259551 2.564666 74 90 103
-0.230706 0.259724 2.563078 70 88 100
-0.226203 0.259671 2.563793 72 89 101
-0.221655 0.259671 2.563964 66 83 96
-0.217077 0.259714 2.563698 69 87 100
-0.212569 0.259650 2.564531 69 87 101
-0.208062 0.259571 2.565507 66 84 97
-0.203398 0.259776 2.563592 67 85 98
-0.198679 0.260135 2.560094 69 88 98
-0.188925 0.261965 2.541751 65 81 91
-0.183874 0.263809 2.523087 65 81 91
-0.179402 0.264221 2.519050 62 77 85
-0.174999 0.264498 2.516376 81 98 113
-0.170682 0.264450 2.517034 129 153 168
-0.166343 0.264515 2.516536 106 134 145
-0.162004 0.264650 2.515325 120 138 150
-0.157677 0.264781 2.514145 102 120 135
-0.153361 0.264861 2.513488 119 145 158
-0.149058 0.265043 2.511792 105 125 145
-0.144744 0.264971 2.512697 120 144 159
-0.140481 0.265275 2.509749 87 108 120
-0.136167 0.265194 2.510742 142 165 177
-0.131860 0.265174 2.511115 120 133 141
-0.127581 0.265258 2.510412 129 156 168
-0.123291 0.265290 2.510254 105 124 132
-0.118999 0.265311 2.510198 90 105 112
-0.114700 0.265314 2.510334 104 117 129
-0.110425 0.265367 2.509949 104 119 131
-0.106163 0.265437 2.509398 114 133 142
-0.101915 0.265521 2.508701 109 133 149
-0.097588 0.265471 2.509375 112 138 158
-0.093299 0.265485 2.509396 109 135 151
-0.089082 0.265596 2.508428 125 147 161
-0.084779 0.265585 2.508700 99 123 132
-0.080432 0.265525 2.509483 98 118 131
-0.055029 0.257597 2.591518 59 79 91
-0.049830 0.257129 2.596508 63 80 93
-0.045081 0.257099 2.596997 58 77 88
-0.040054 0.256837 2.599865 62 81 93
-0.035343 0.256854 2.599872 56 73 87
-0.030687 0.256914 2.599438 58 77 89
-0.025790 0.256789 2.600902 57 75 88
-0.020764 0.256579 2.603237 61 80 92
-0.016005 0.256573 2.603485 60 78 89
-0.011043 0.256429 2.605143 65 81 93
-0.006125 0.256325 2.606396 62 77 88
-0.001282 0.256276 2.607082 65 80 93
0.003167 0.256473 2.605236 53 71 83
0.008364 0.256212 2.608107 57 75 87
0.012993 0.256296 2.607415 56 76 86
0.018065 0.256127 2.609345 52 72 85
0.022204 0.256480 2.605891 59 78 90
0.027024 0.256451 2.606373 56 75 84
0.031977 0.256354 2.607552 59 75 86
0.036971 0.256241 2.608893 56 72 82
0.041908 0.256163 2.609877 56 69 80
0.045867 0.256564 2.605929 52 63 73
0.050974 0.256403 2.607772 53 68 77
0.055199 0.256658 2.605323 53 70 80
0.059649 0.256800 2.604038 58 71 81
0.063527 0.257191 2.600196 55 71 81
0.068408 0.257130 2.601004 58 78 87
0.071432 0.257860 2.593649 56 75 85
0.090367 0.264690 2.524525 129 153 169
0.094705 0.264706 2.524525 113 135 146
0.098751 0.264825 2.523465 127 148 161
0.102338 0.265099 2.520805 127 151 163
0.106339 0.265222 2.519691 127 147 158
0.110520 0.265283 2.519231 117 131 137
0.114777 0.265317 2.519047 113 134 146
0.119739 0.265122 2.521230 88 97 105
0.124506 0.264996 2.522702 89 109 117
0.129953 0.264661 2.526337 83 97 108
0.134539 0.264602 2.527113 91 105 113
0.139165 0.264533 2.527995 122 144 158
0.143915 0.264429 2.529235 126 147 154
0.147154 0.264774 2.525828 115 133 146
0.151101 0.264904 2.524652 122 145 160
0.156226 0.264693 2.527007 68 86 95
0.162140 0.264265 2.531606 108 125 133
0.166509 0.264280 2.531620 109 122 128
0.171525 0.264117 2.533479 112 128 130
0.175432 0.264259 2.532173 124 137 142
0.179961 0.264232 2.532627 88 105 115
0.185006 0.264069 2.534486 120 142 156
0.187817 0.264493 2.530255 97 115 125
0.209603 0.260023 2.576798 68 83 95
0.215740 0.259642 2.580922 71 86 97
0.220898 0.259518 2.582394 74 89 99
0.225996 0.259411 2.583681 69 84 93
0.230020 0.259570 2.582206 66 83 92
0.235889 0.259279 2.585403 70 85 95
0.241152 0.259141 2.587021 67 82 93
0.245380 0.259250 2.586063 70 86 96
0.250306 0.259194 2.586822 64 80 85
0.255060 0.259180 2.587153 65 80 86
0.259874 0.259152 2.587620 57 71 78
0.263098 0.259484 2.584349 61 74 84
0.264920 0.260122 2.577894 64 80 87
0.265683 0.260980 2.569152 87 107 111
0.266017 0.261913 2.559623 105 127 131
0.268642 0.262331 2.555442 105 127 144
0.271280 0.262738 2.551379 113 137 146
0.274927 0.262924 2.549622 106 121 133
0.280044 0.262798 2.551104 137 147 149
0.283196 0.263082 2.548319 128 142 154
0.287335 0.263158 2.547698 110 133 148
0.291023 0.263324 2.546139 115 139 156
0.296742 0.263079 2.548860 107 126 136
-0.386501 0.259463 2.626394 175 171 164
-0.380794 0.259827 2.622642 135 150 158
-0.375223 0.260148 2.619345 138 155 169
-0.359172 0.260900 2.611768 97 121 137
-0.294751 0.268193 2.534568 117 136 150
-0.289162 0.268941 2.526613 147 165 178
-0.284560 0.269096 2.525103 133 149 158
-0.279762 0.269393 2.522043 112 130 140
-0.275371 0.269427 2.521847 125 142 153
-0.271008 0.269442 2.521854 106 125 134
-0.267002 0.269191 2.524766 132 149 156
-0.262676 0.269167 2.525200 113 134 147
-0.258506 0.269014 2.527038 104 121 136
-0.255391 0.267950 2.538799 83 101 118
-0.252282 0.266783 2.551687 67 86 101
-0.248679 0.265962 2.560814 70 88 102
-0.244097 0.266014 2.560426 73 88 100
-0.239724 0.265856 2.562331 75 91 104
-0.235306 0.265727 2.563915 85 104 114
-0.230644 0.265863 2.562612 73 91 103
-0.226280 0.265648 2.565136 76 93 104
-0.221697 0.265692 2.564845 80 97 111
-0.217154 0.265682 2.565130 74 94 105
-0.212548 0.265764 2.564419 73 92 106
-0.208057 0.265671 2.565621 73 90 105
-0.203407 0.265842 2.563937 79 96 109
-0.198683 0.266191 2.560302 80 99 111
-0.183929 0.269500 2.524696 68 87 96
-0.179379 0.270128 2.518015 67 85 94
-0.175027 0.270217 2.517213 79 99 115
-0.170682 0.270305 2.516425 118 140 155
-0.166360 0.270295 2.516707 98 121 132
-0.162023 0.270421 2.515505 120 136 147
-0.157693 0.270646 2.513215 113 131 144
-0.153385 0.270776 2.511964 127 153 165
-0.149081 0.270777 2.512126 128 150 166
-0.144794 0.270935 2.510566 120 142 156
-0.140521 0.271084 2.509104 101 118 133
-0.136228 0.271075 2.509381 140 163 177
-0.131940 0.271096 2.509316 128 143 153
-0.127629 0.271041 2.510096 126 156 170
-0.123337 0.271053 2.510133 97 118 126
-0.119061 0.271105 2.509735 93 107 118
-0.114748 0.271070 2.510296 112 126 140
-0.110473 0.271114 2.509977 113 129 140
-0.106213 0.271181 2.509423 107 127 137
-0.101986 0.271289 2.508408 109 129 145
-0.097695 0.271289 2.508576 131 156 169
-0.093425 0.271319 2.508420 130 155 169
-0.089172 0.271368 2.508057 134 156 171
-0.084980 0.271485 2.506946 111 133 143
-0.080806 0.271609 2.505749 100 119 130
-0.059477 0.263551 2.594732 54 72 85
-0.054725 0.263508 2.595395 63 81 94
-0.049669 0.263207 2.598894 62 79 91
-0.044753 0.263049 2.600815 68 86 96
-0.040114 0.263124 2.600182 69 86 97
-0.035187 0.262976 2.602000 64 81 94
-0.030335 0.262894 2.603089 64 83 93
-0.025320 0.262704 2.605359 59 75 88
-0.020559 0.262702 2.605580 65 81 94
-0.015815 0.262711 2.605664 64 79 93
-0.010850 0.262581 2.607286 70 88 100
-0.006181 0.262642 2.606810 62 78 88
-0.001243 0.262539 2.608131 62 79 90
0.003578 0.262511 2.608630 54 74 86
0.008534 0.262409 2.609941 56 73 86
0.013036 0.262562 2.608454 61 78 87
0.017898 0.262516 2.609148 59 76 86
0.022829 0.262437 2.610203 59 75 87
0.027574 0.262457 2.610178 61 78 88
0.032453 0.262411 2.610878 60 79 89
0.037235 0.262413 2.611042 61 81 92
0.041619 0.262602 2.609158 56 79 89
0.046553 0.262532 2.610115 63 82 93
0.050744 0.262796 2.607400 65 80 90
0.055758 0.262691 2.608741 68 85 96
0.060232 0.262821 2.607503 65 82 93
0.064539 0.263014 2.605561 59 75 86
0.068978 0.263147 2.604289 65 81 92
0.073258 0.263337 2.602376 38 57 68
0.077910 0.263375 2.602145 60 78 88
0.080242 0.264297 2.592156 61 81 91
0.089707 0.270681 2.522709 78 95 107
0.094085 0.270680 2.522896 133 162 177
0.097916 0.270859 2.521093 95 114 126
0.102247 0.270871 2.521137 117 141 153
0.106367 0.270949 2.520445 124 143 155
0.110610 0.270987 2.520195 124 140 150
0.114544 0.271119 2.518910 115 138 151
0.119405 0.270967 2.520764 101 113 121
0.123496 0.271049 2.520030 102 120 127
0.128716 0.270799 2.522979 101 117 130
0.133641 0.270641 2.524898 65 79 87
0.138836 0.270412 2.527612 117 141 155
0.143119 0.270445 2.527422 123 146 155
0.146792 0.270646 2.525373 112 131 144
0.151384 0.270591 2.526152 124 147 161
0.155741 0.270602 2.526212 64 80 90
0.160132 0.270603 2.526374 126 143 152
0.165455 0.270362 2.529223 128 141 143
0.170154 0.270288 2.530221 113 128 136
0.173842 0.270473 2.528348 117 132 141
0.179876 0.270066 2.533040 80 99 108
0.183702 0.270215 2.531560 122 144 159
0.188261 0.270182 2.532103 89 106 124
0.205799 0.267027 2.567310 63 81 93
0.215765 0.265751 2.581665 73 89 102
0.220816 0.265660 2.582860 65 83 99
0.225205 0.265725 2.582322 69 86 99
0.230040 0.265687 2.582933 64 83 94
0.235283 0.265558 2.584559 66 84 96
0.240300 0.265482 2.585583 69 87 100
0.245295 0.265414 2.586534 63 80 92
0.249906 0.265431 2.586531 64 83 93
0.255135 0.265314 2.588012 72 91 100
0.259440 0.265398 2.587267 65 84 91
0.263260 0.265583 2.585402 62 81 85
0.265695 0.266052 2.580364 72 89 97
0.267418 0.267604 2.563460 121 145 159
0.269923 0.268023 2.558974 99 123 137
0.271481 0.268623 2.552474 106 131 145
0.274097 0.269002 2.548441 108 127 142
0.278422 0.269038 2.548215 142 151 153
0.281803 0.269257 2.545958 127 137 142
0.286449 0.269229 2.546450 123 148 162
0.290538 0.269307 2.545756 108 130 143
-0.385741 0.266206 2.623591 168 167 156
-0.380839 0.266241 2.623383 105 120 136
-0.294664 0.274117 2.534438 145 165 175
-0.288726 0.275021 2.524068 141 162 173
-0.284121 0.275176 2.522430 112 131 142
-0.279981 0.275052 2.524068 110 121 135
-0.275252 0.275299 2.521360 116 136 143
-0.271000 0.275243 2.522203 118 131 144
-0.266645 0.275253 2.522258 131 150 154
-0.262409 0.275178 2.523328 120 138 151
-0.258552 0.274807 2.527844 101 122 135
-0.255467 0.273793 2.539890 86 106 120
-0.252227 0.272813 2.551543 70 89 105
-0.248626 0.272052 2.560648 76 92 105
-0.243993 0.272151 2.559676 81 97 108
-0.239611 0.272018 2.561419 76 91 104
-0.235062 0.272040 2.561358 76 89 101
-0.230624 0.271943 2.562687 76 89 100
-0.226076 0.271957 2.562709 75 88 99
-0.221572 0.271918 2.563353 88 102 114
-0.217098 0.271834 2.564536 96 110 121
-0.212560 0.271823 2.564854 88 104 114
-0.207999 0.271845 2.564790 77 94 105
-0.203324 0.272058 2.562474 76 92 104
-0.198614 0.272376 2.558940 76 93 104
-0.179320 0.276131 2.515615 75 92 103
-0.175018 0.276074 2.516462 96 116 131
-0.170639 0.276354 2.513357 114 136 152
-0.166338 0.276316 2.513981 109 132 143
-0.162029 0.276304 2.514302 120 137 147
-0.157710 0.276470 2.512533 110 128 142
-0.153408 0.276581 2.511419 123 146 159
-0.149123 0.276788 2.509163 114 140 153
-0.144824 0.276702 2.510353 114 137 151
-0.140550 0.276815 2.509199 102 120 134
-0.136261 0.276815 2.509381 130 156 169
-0.132006 0.276939 2.508104 133 148 157
-0.127708 0.276901 2.508737 128 155 167
-0.123429 0.276925 2.508637 106 121 129
-0.119161 0.276968 2.508301 101 113 121
-0.114866 0.276954 2.508653 113 130 143
-0.110646 0.277073 2.507427 122 140 151
-0.106238 0.276876 2.509926 116 135 146
-0.102087 0.277088 2.507613 118 138 154
-0.097818 0.277110 2.507534 138 158 170
-0.093627 0.277228 2.506319 134 155 168
-0.089362 0.277246 2.506286 142 162 175
-0.085231 0.277411 2.504526 104 125 135
-0.080872 0.277320 2.505774 107 125 135
-0.064292 0.269856 2.594207 59 77 90
-0.058711 0.269076 2.603601 61 82 96
-0.054277 0.269338 2.600714 64 84 98
-0.049471 0.269277 2.601625 60 80 92
-0.044891 0.269397 2.600415 64 82 93
-0.039921 0.269220 2.602700 68 85 98
-0.034976 0.269076 2.604597 61 79 90
-0.030088 0.268983 2.605904 65 82 92
-0.025089 0.268824 2.607975 68 84 95
-0.020355 0.268846 2.607921 69 86 98
-0.015726 0.268931 2.607116 66 83 95
-0.010755 0.268809 2.608757 73 90 103
-0.005852 0.268735 2.609835 66 83 95
-0.000961 0.268672 2.610775 65 82 95
0.003841 0.268663 2.611089 63 80 93
0.008891 0.268525 2.612927 69 86 97
0.013501 0.268618 2.612020 69 85 97
0.018205 0.268661 2.611715 69 85 96
0.022684 0.268810 2.610156 72 87 100
0.027423 0.268830 2.610115 68 85 99
0.032529 0.268683 2.612055 60 81 90
0.036933 0.268856 2.610215 58 78 89
0.041661 0.268880 2.610127 56 76 89
0.046523 0.268847 2.610719 62 80 91
0.051040 0.268959 2.609599 68 83 96
0.055965 0.268901 2.610482 67 84 95
0.060381 0.269047 2.608948 64 81 91
0.064748 0.269207 2.607259 63 81 92
0.069495 0.269216 2.607343 62 81 90
0.073910 0.269349 2.605972 54 72 79
0.078798 0.269305 2.606690 69 85 92
0.092938 0.276790 2.519318 81 101 109
0.097477 0.276734 2.520159 96 120 138
0.101889 0.276719 2.520518 121 147 159
0.105720 0.276877 2.518825 106 126 140
0.110453 0.276768 2.520308 131 151 163
0.114015 0.276997 2.517762 119 143 158
0.118664 0.276914 2.518937 92 108 118
0.122547 0.277046 2.517553 97 112 119
0.127284 0.276941 2.518983 106 120 135
0.132558 0.276696 2.522089 122 139 147
0.136565 0.276793 2.521113 108 125 136
0.141895 0.276543 2.524276 124 147 157
0.146196 0.276565 2.524199 127 147 160
0.150483 0.276590 2.524084 110 134 147
0.155290 0.276485 2.525520 54 71 82
0.159745 0.276469 2.525888 90 106 113
0.165152 0.276224 2.528996 120 134 137
0.169420 0.276258 2.528775 116 132 141
0.174417 0.276120 2.530614 112 129 137
0.178037 0.276306 2.528578 103 121 126
0.182258 0.276349 2.528246 127 148 161
0.188005 0.276046 2.532054 99 119 135
0.204759 0.273286 2.565200 75 91 104
0.215317 0.271965 2.581161 73 90 102
0.219307 0.272112 2.579604 78 92 107
0.224457 0.272006 2.581073 67 82 95
0.229018 0.272027 2.581011 71 86 97
0.234566 0.271841 2.583431 74 90 102
0.239968 0.271690 2.585436 82 99 109
0.244515 0.271718 2.585294 65 84 93
0.248912 0.271777 2.584792 68 87 95
0.253896 0.271716 2.585711 73 92 100
0.258476 0.271738 2.585654 71 89 96
0.262354 0.271896 2.583950 66 81 88
0.264750 0.272340 2.578837 63 78 85
0.267668 0.273554 2.564686 121 142 152
0.269360 0.274099 2.558362 94 117 131
0.269923 0.274841 2.549656 114 141 157
0.273073 0.275093 2.546830 121 139 156
0.277021 0.275194 2.545804 125 136 140
0.281459 0.275206 2.545859 131 140 143
0.285278 0.275327 2.544591 124 150 163
0.288327 0.275582 2.541718 110 129 142
0.294944 0.275210 2.546379 105 126 138
-0.369088 0.273471 2.614311 143 169 179
-0.363535 0.273773 2.610723 93 120 135
-0.294254 0.280201 2.532167 122 141 153
-0.283879 0.281106 2.521143 129 149 159
-0.279259 0.281274 2.519209 107 121 133
-0.275227 0.281101 2.521589 121 141 146
-0.270718 0.281210 2.520397 113 125 136
-0.266528 0.281122 2.521705 128 145 151
-0.262039 0.281226 2.520581 115 132 144
-0.257910 0.281086 2.522544 109 133 144
-0.254845 0.280154 2.534522 87 106 122
-0.252725 0.278411 2.556748 65 83 98
-0.248543 0.278155 2.560191 65 81 94
-0.244085 0.278105 2.561026 65 81 93
-0.239498 0.278162 2.560504 72 87 98
-0.235061 0.278084 2.561685 80 95 106
-0.230498 0.278120 2.561428 77 93 103
-0.225944 0.278150 2.561256 72 89 99
-0.221465 0.278098 2.562114 79 94 104
-0.217017 0.278000 2.563562 84 99 109
-0.212411 0.278090 2.562621 82 94 101
-0.207882 0.278084 2.562902 79 91 98
-0.203308 0.278145 2.562324 83 96 104
-0.198692 0.278287 2.560730 79 95 103
-0.184019 0.280970 2.527303 81 96 105
-0.179358 0.281813 2.516812 78 94 104
-0.174991 0.281980 2.514880 101 119 136
-0.170613 0.282279 2.511283 113 139 156
-0.166343 0.282132 2.513335 88 111 122
-0.162038 0.282142 2.513404 117 134 144
-0.157730 0.282225 2.512536 106 127 142
-0.153432 0.282481 2.509472 119 142 153
-0.149147 0.282508 2.509323 101 121 136
-0.144873 0.282599 2.508356 108 126 142
-0.140597 0.282635 2.508086 84 105 120
-0.136325 0.282673 2.507805 113 141 158
-0.132084 0.282799 2.506384 131 145 158
-0.127759 0.282665 2.508286 128 154 169
-0.123509 0.282740 2.507515 95 112 121
-0.119202 0.282687 2.508382 87 99 105
-0.114970 0.282784 2.507338 108 122 133
-0.110669 0.282751 2.507955 109 128 141
-0.106416 0.282796 2.507569 84 102 116
-0.102115 0.282772 2.508065 105 126 143
-0.097935 0.282903 2.506580 134 153 166
-0.093684 0.282936 2.506356 129 150 161
-0.089433 0.282965 2.506176 141 163 175
-0.085288 0.283101 2.504638 103 123 132
-0.081056 0.283138 2.504355 111 130 139
-0.063905 0.275719 2.599340 63 81 94
-0.058570 0.275216 2.605956 65 83 97
-0.054171 0.275493 2.602641 66 84 98
-0.049389 0.275461 2.603259 67 86 97
-0.044664 0.275473 2.603319 63 81 91
-0.039771 0.275370 2.604846 70 89 101
-0.034942 0.275318 2.605715 63 81 93
-0.029997 0.275198 2.607458 76 93 103
-0.025185 0.275168 2.608051 74 91 100
-0.020653 0.275306 2.606497 72 89 100
-0.015348 0.274998 2.610656 72 90 101
-0.010536 0.274980 2.611091 71 88 100
-0.005413 0.274800 2.613605 70 86 97
-0.000656 0.274820 2.613569 68 84 94
0.003961 0.274909 2.612646 63 80 90
0.008979 0.274799 2.614255 68 84 94
0.013834 0.274773 2.614802 63 81 91
0.018271 0.274940 2.612880 65 82 89
0.022788 0.275063 2.611519 73 90 101
0.027951 0.274901 2.613805 73 89 103
0.032183 0.275140 2.610959 69 84 94
0.037082 0.275094 2.611760 69 83 96
0.041552 0.275223 2.610330 76 91 103
0.046616 0.275113 2.611941 63 81 90
0.050972 0.275280 2.610021 59 77 86
0.055806 0.275261 2.610469 56 74 83
0.060578 0.275266 2.610618 75 93 102
0.065182 0.275332 2.609988 80 101 110
0.069853 0.275372 2.609690 56 74 84
0.074070 0.275566 2.607412 60 77 82
0.078861 0.275560 2.607700 69 86 91
0.093501 0.282355 2.522060 77 96 103
0.097206 0.282544 2.519828 112 137 151
0.101521 0.282556 2.519857 116 143 155
0.105189 0.282746 2.517612 117 139 153
0.109246 0.282825 2.516787 119 139 147
0.113576 0.282830 2.516919 119 140 157
0.117953 0.282823 2.517206 110 126 136
0.122116 0.282871 2.516782 81 95 103
0.127568 0.282593 2.520554 103 120 131
0.131509 0.282699 2.519383 93 108 117
0.136411 0.282567 2.521276 96 116 122
0.140739 0.282577 2.521335 121 143 154
0.145036 0.282595 2.521298 130 147 160
0.149568 0.282558 2.521972 121 144 159
0.154464 0.282438 2.523712 79 94 107
0.159799 0.282222 2.526690 131 147 155
0.163549 0.282368 2.525005 105 119 127
0.168725 0.282195 2.527436 104 121 131
0.173314 0.282155 2.528153 115 132 140
0.178097 0.282074 2.529390 111 128 133
0.183263 0.281914 2.531648 125 146 157
0.188426 0.281759 2.533843 108 126 140
0.204421 0.279365 2.564962 76 91 102
0.214354 0.278271 2.579295 82 97 105
0.219025 0.278268 2.579544 79 94 105
0.224030 0.278199 2.580648 83 97 107
0.228797 0.278178 2.581122 83 97 108
0.233339 0.278202 2.581020 84 98 109
0.238253 0.278154 2.581846 81 97 107
0.243703 0.278006 2.583973 83 101 108
0.248544 0.277975 2.584572 82 101 109
0.253824 0.277865 2.586214 88 104 109
0.258605 0.277848 2.586636 87 100 107
0.261880 0.278106 2.583507 77 89 97
0.263758 0.278609 2.577201 71 85 94
0.265063 0.279203 2.569713 70 88 93
0.266588 0.279746 2.562886 98 118 125
0.267193 0.280437 2.554134 106 130 140
0.269195 0.280874 2.548679 112 139 155
0.271602 0.281233 2.544230 115 139 154
0.276508 0.281163 2.545329 130 144 145
0.280847 0.281190 2.545179 115 124 131
0.285124 0.281227 2.544902 120 141 155
0.288276 0.281447 2.542249 123 142 154
0.293382 0.281347 2.543746 130 154 168
-0.384993 0.279313 2.621379 161 163 156
-0.368163 0.280159 2.610488 141 161 174
-0.362878 0.280351 2.608085 93 121 139
-0.358371 0.280272 2.609398 92 118 137
-0.288414 0.286781 2.522804 141 161 170
-0.283839 0.286907 2.521288 114 129 139
-0.279123 0.287115 2.518636 113 130 141
-0.274895 0.287068 2.519492 126 140 147
-0.270539 0.287090 2.519393 113 127 135
-0.266357 0.287008 2.520714 126 141 148
-0.261835 0.287130 2.519242 112 129 141
-0.257746 0.286983 2.521476 114 138 151
-0.253975 0.286606 2.526854 80 98 117
-0.251610 0.285203 2.546340 68 88 101
-0.248621 0.284126 2.561358 72 89 99
-0.243977 0.284223 2.560242 72 87 100
-0.239524 0.284173 2.561147 76 91 102
-0.235062 0.284123 2.562037 84 101 112
-0.230456 0.284198 2.561223 76 96 106
-0.225920 0.284212 2.561241 81 97 109
-0.221459 0.284150 2.562310 78 93 105
-0.216900 0.284185 2.562040 87 105 117
-0.212536 0.283992 2.564918 82 99 111
-0.207855 0.284175 2.562619 79 95 105
-0.203250 0.284281 2.561361 87 104 113
-0.188879 0.285843 2.540468 81 95 107
-0.184062 0.286723 2.528551 77 91 100
-0.179308 0.287738 2.514758 79 93 103
-0.174947 0.287911 2.512577 99 120 135
-0.170618 0.288043 2.510950 113 139 156
-0.166333 0.288019 2.511491 109 131 144
-0.162042 0.288007 2.511854 119 135 145
-0.157736 0.288228 2.509009 102 119 131
-0.153456 0.288324 2.507885 131 154 167
-0.149187 0.288424 2.506708 104 122 139
-0.144920 0.288453 2.506515 107 129 144
-0.140643 0.288429 2.507041 83 106 122
-0.136388 0.288498 2.506292 115 142 160
-0.132125 0.288521 2.506176 110 125 135
-0.127828 0.288457 2.507263 118 136 152
-0.123571 0.288499 2.506888 97 114 124
-0.119301 0.288509 2.506950 77 89 97
-0.115126 0.288677 2.504831 120 136 146
-0.110783 0.288562 2.506617 84 102 116
-0.106584 0.288666 2.505377 110 128 140
-0.102336 0.288694 2.505194 96 117 133
-0.098016 0.288636 2.506200 142 159 171
-0.093899 0.288806 2.504050 127 150 163
-0.089606 0.288778 2.504636 144 166 178
-0.085339 0.288779 2.504821 84 105 117
-0.063664 0.281753 2.602885 70 88 102
-0.058477 0.281414 2.607808 65 85 99
-0.053910 0.281553 2.606105 61 78 92
-0.049293 0.281647 2.605034 65 81 95
-0.044451 0.281586 2.606104 72 89 99
-0.039621 0.281538 2.606993 74 89 102
-0.035001 0.281622 2.606052 67 84 96
-0.030066 0.281517 2.607733 72 90 100
-0.025256 0.281491 2.608315 73 91 100
-0.020267 0.281372 2.610206 73 89 99
-0.015728 0.281496 2.608709 70 87 99
-0.010452 0.281241 2.612480 75 91 103
-0.005513 0.281167 2.613726 65 83 94
-0.000736 0.281175 2.613840 66 83 95
0.003979 0.281213 2.613550 66 81 93
0.008801 0.281201 2.613941 71 87 96
0.013679 0.281166 2.614655 64 82 94
0.018364 0.281215 2.614197 70 88 99
0.022923 0.281313 2.613060 65 82 96
0.027729 0.281309 2.613344 66 84 96
0.032290 0.281400 2.612298 71 89 99
0.036920 0.281462 2.611671 66 84 96
0.041780 0.281436 2.612258 70 88 97
0.046284 0.281540 2.611035 68 85 94
0.050943 0.281585 2.610631 72 88 99
0.055977 0.281500 2.612041 73 92 101
0.060440 0.281611 2.610719 72 91 101
0.065295 0.281589 2.611251 65 85 97
0.069658 0.281727 2.609555 64 83 96
0.075020 0.281545 2.612323 75 92 104
0.079582 0.281618 2.611535 71 87 94
0.091017 0.287587 2.529632 74 88 96
0.093797 0.288018 2.523813 100 120 129
0.097809 0.288114 2.522682 124 146 159
0.100960 0.288427 2.518507 121 148 161
0.104595 0.288608 2.516176 130 157 169
0.108864 0.288627 2.516116 106 124 133
0.113565 0.288541 2.517532 114 135 150
0.117648 0.288605 2.516834 106 123 133
0.121822 0.288647 2.516456 101 118 125
0.126415 0.288590 2.517458 101 119 131
0.131435 0.288438 2.519795 102 116 128
0.135478 0.288511 2.518982 84 98 108
0.139608 0.288562 2.518466 134 158 172
0.144681 0.288407 2.520855 131 153 168
0.149082 0.288401 2.521149 120 140 155
0.154311 0.288219 2.523899 86 103 117
0.158775 0.288203 2.524332 113 130 141
0.163443 0.288146 2.525344 98 110 120
0.168048 0.288103 2.526149 113 132 141
0.172463 0.288101 2.526398 114 133 140
0.176209 0.288231 2.524781 112 127 136
0.181281 0.288098 2.526851 128 149 157
0.185062 0.288218 2.525366 129 149 166
0.206682 0.284939 2.571684 67 81 94
0.213970 0.284437 2.578956 79 95 105
0.218419 0.284476 2.578637 77 94 105
0.223276 0.284438 2.579380 77 94 104
0.228733 0.284294 2.581636 79 93 104
0.232466 0.284461 2.579495 81 96 106
0.238661 0.284190 2.583538 74 92 102
0.243066 0.284238 2.583081 69 86 97
0.249111 0.284002 2.586627 71 88 97
0.252913 0.284155 2.584699 74 89 97
0.256814 0.284288 2.583050 71 85 91
0.260803 0.284403 2.581645 75 88 95
0.265222 0.284445 2.581273 66 84 90
0.265115 0.285225 2.570493 68 85 91
0.266500 0.285748 2.563343 86 104 110
0.266889 0.286418 2.554099 113 135 145
0.269064 0.286793 2.549032 121 144 160
0.269962 0.287359 2.541253 112 134 151
0.276224 0.287084 2.545349 111 122 131
0.279644 0.287250 2.543220 114 123 127
0.284669 0.287169 2.544568 112 134 148
0.287797 0.287375 2.541873 127 145 160
0.292057 0.287409 2.541604 123 149 162
0.299278 0.287008 2.547494 112 125 131
-0.379765 0.285856 2.620165 131 145 158
-0.373753 0.286236 2.614721 130 151 163
-0.367488 0.286712 2.607839 136 159 173
-0.362543 0.286784 2.606995 84 113 132
-0.357984 0.286732 2.608010 92 120 141
-0.288367 0.292589 2.522916 134 153 162
-0.283614 0.292789 2.520127 119 135 147
-0.278921 0.292974 2.517577 101 116 127
-0.274642 0.292961 2.517985 119 135 145
-0.270378 0.292939 2.518535 117 133 142
-0.265926 0.293016 2.517591 115 133 142
-0.261687 0.292978 2.518379 115 136 151
-0.257383 0.292975 2.518652 115 140 154
-0.254409 0.292152 2.531260 85 105 121
-0.252115 0.290814 2.551614 74 93 108
-0.248522 0.290224 2.560731 83 100 110
-0.243966 0.290255 2.560493 83 102 113
-0.239341 0.290339 2.559447 78 95 108
-0.234942 0.290254 2.560961 79 96 108
-0.230473 0.290216 2.561765 85 102 114
-0.225986 0.290188 2.562418 76 92 104
-0.221436 0.290214 2.562260 74 89 100
-0.216871 0.290256 2.561850 72 88 99
-0.212327 0.290280 2.561713 74 89 100
-0.207814 0.290271 2.562086 75 89 99
-0.203230 0.290349 2.561136 94 109 119
-0.184149 0.292393 2.531177 89 105 119
-0.179330 0.293454 2.515357 82 99 108
-0.174998 0.293530 2.514429 111 131 146
-0.170640 0.293734 2.511569 130 155 169
-0.166318 0.293900 2.509275 114 137 149
-0.162046 0.293844 2.510341 126 142 150
-0.157748 0.294079 2.507002 108 124 135
-0.153479 0.294128 2.506475 122 145 158
-0.149221 0.294230 2.505147 116 132 150
-0.144973 0.294316 2.504053 107 130 144
-0.140700 0.294248 2.505299 81 102 118
-0.136433 0.294238 2.505670 119 146 163
-0.132181 0.294274 2.505342 112 127 136
-0.127902 0.294243 2.506035 125 144 159
-0.123710 0.294390 2.504018 93 110 117
-0.119374 0.294262 2.506178 98 110 117
-0.115199 0.294405 2.504225 105 121 129
-0.110844 0.294278 2.506359 117 132 144
-0.106649 0.294374 2.505126 105 124 131
-0.102469 0.294474 2.503823 114 134 148
-0.098159 0.294423 2.504815 133 155 167
-0.094001 0.294529 2.503420 127 148 163
-0.089723 0.294513 2.503875 136 161 175
-0.085519 0.294564 2.503316 84 105 119
-0.080965 0.294328 2.507128 99 120 134
-0.063371 0.287787 2.606999 70 88 101
-0.058541 0.287735 2.608027 68 84 98
-0.053921 0.287828 2.606861 65 80 94
-0.049248 0.287879 2.606319 79 94 106
-0.044139 0.287666 2.609799 75 91 102
-0.039632 0.287818 2.607739 75 92 101
-0.034881 0.287823 2.607891 73 91 102
-0.029966 0.287743 2.609363 74 91 103
-0.025096 0.287692 2.610381 72 89 99
-0.020009 0.287539 2.612954 66 83 94
-0.015125 0.287493 2.613889 63 80 93
-0.010350 0.287502 2.613997 59 75 87
-0.005498 0.287477 2.614631 63 80 91
-0.000675 0.287466 2.615031 41 57 69
0.004044 0.287500 2.614755 48 64 72
0.008746 0.287540 2.614388 55 68 76
0.013664 0.287494 2.615346 69 81 92
0.018423 0.287511 2.615322 63 82 91
0.022926 0.287623 2.613850 78 96 109
0.027417 0.287735 2.612385 65 82 94
0.032158 0.287753 2.612352 72 86 99
0.037102 0.287701 2.613394 68 82 95
0.041619 0.287796 2.612193 67 83 93
0.046347 0.287817 2.612108 71 88 97
0.051205 0.287796 2.612667 69 87 97
0.055741 0.287878 2.611660 65 85 94
0.059876 0.288080 2.608822 69 89 99
0.065288 0.287890 2.611965 69 85 95
0.070234 0.287846 2.612885 70 88 96
0.074614 0.287967 2.611278 65 84 93
0.093458 0.293849 2.523220 91 110 118
0.096847 0.294084 2.519836 93 117 131
0.100495 0.294251 2.517498 111 134 150
0.104300 0.294377 2.515789 107 133 147
0.108664 0.294372 2.516075 105 123 134
0.112423 0.294503 2.514292 113 138 150
0.116809 0.294493 2.514667 110 131 146
0.121590 0.294398 2.516337 117 132 142
0.125796 0.294429 2.516089 118 133 145
0.131129 0.294224 2.519460 91 106 116
0.134029 0.294525 2.515056 87 102 112
0.139476 0.294302 2.518701 127 154 169
0.143901 0.294290 2.519109 124 145 160
0.148530 0.294238 2.520126 121 143 158
0.153496 0.294123 2.522116 121 141 156
0.158406 0.294023 2.523890 115 135 144
0.162974 0.293989 2.524629 98 114 125
0.167613 0.293944 2.525549 109 128 137
0.171924 0.293960 2.525522 97 114 120
0.175736 0.294066 2.524107 114 126 133
0.180821 0.293943 2.526227 122 142 149
0.212129 0.290841 2.574761 80 96 107
0.217354 0.290742 2.576528 72 89 101
0.222693 0.290626 2.578548 69 86 99
0.228182 0.290489 2.580904 75 93 103
0.232565 0.290536 2.580419 71 87 97
0.237642 0.290470 2.581673 79 96 105
0.243305 0.290312 2.584343 79 94 103
0.247874 0.290331 2.584292 78 95 102
0.252679 0.290313 2.584810 79 98 105
0.257665 0.290268 2.585747 81 100 108
0.262788 0.290203 2.586989 82 99 105
0.265758 0.290464 2.583191 77 94 103
0.266567 0.291041 2.574499 70 89 96
0.267035 0.292326 2.555078 114 135 144
0.268533 0.292766 2.548492 104 130 145
0.270284 0.293161 2.542603 107 131 146
0.275117 0.293113 2.543572 99 113 125
0.278743 0.293235 2.541910 109 125 132
0.283226 0.293236 2.542118 108 127 135
0.287049 0.293328 2.540925 112 134 152
0.291614 0.293318 2.541312 121 146 161
0.307602 0.292388 2.556190 110 121 128
-0.378134 0.292698 2.613348 114 132 141
-0.372886 0.292840 2.611258 134 147 160
-0.367608 0.292997 2.608930 127 154 168
-0.362091 0.293229 2.605341 82 110 131
-0.357851 0.293092 2.607874 97 125 146
-0.353137 0.293092 2.608140 100 126 145
-0.347720 0.293310 2.604775 100 126 144
-0.287537 0.298714 2.517662 142 162 177
-0.283191 0.298735 2.517557 125 144 155
-0.278863 0.298748 2.517575 100 118 128
-0.274552 0.298754 2.517716 121 139 149
-0.270176 0.298789 2.517357 103 121 130
-0.265964 0.298747 2.518303 109 128 139
-0.261524 0.298816 2.517389 121 142 160
-0.257116 0.298874 2.516664 123 149 163
-0.253307 0.298601 2.521435 72 96 109
-0.252305 0.296667 2.553840 72 91 105
-0.248357 0.296346 2.559431 76 95 105
-0.244004 0.296251 2.561265 76 93 107
-0.239440 0.296287 2.560913 80 99 111
-0.234896 0.296312 2.560750 76 92 104
-0.230177 0.296470 2.558360 88 97 108
-0.225742 0.296419 2.559457 82 96 104
-0.221225 0.296429 2.559536 44 57 67
-0.216720 0.296428 2.559799 48 58 69
-0.212252 0.296389 2.560702 59 76 86
-0.207843 0.296277 2.562809 65 78 89
-0.203151 0.296475 2.559749 87 102 112
-0.188840 0.297738 2.539412 85 98 111
-0.179247 0.299399 2.512137 84 97 105
-0.174945 0.299438 2.511729 111 128 144
-0.170615 0.299581 2.509570 130 154 168
-0.166347 0.299545 2.510418 96 110 123
-0.162049 0.299654 2.508830 123 138 146
-0.157770 0.299734 2.507717 107 128 143
-0.153500 0.299769 2.507368 117 143 156
-0.149245 0.299910 2.505240 113 132 150
-0.144984 0.299903 2.505598 97 124 135
-0.140724 0.299909 2.505718 71 91 106
-0.136490 0.299999 2.504452 112 139 158
-0.132236 0.300008 2.504530 116 131 140
-0.127936 0.299924 2.506177 124 145 160
-0.123775 0.300110 2.503287 107 119 129
-0.119485 0.300055 2.504445 108 118 124
-0.115262 0.300106 2.503823 92 104 113
-0.111033 0.300142 2.503459 117 131 142
-0.106776 0.300142 2.503688 105 121 129
-0.102540 0.300165 2.503537 112 132 145
-0.098391 0.300270 2.502014 130 152 165
-0.094120 0.300253 2.502533 124 146 160
-0.089853 0.300243 2.502926 125 151 164
-0.085561 0.300216 2.503617 89 111 126
-0.063549 0.294173 2.605929 72 90 103
-0.058742 0.294137 2.606802 72 88 101
-0.053804 0.294027 2.608902 73 90 103
-0.049314 0.294183 2.606550 72 87 99
-0.044453 0.294124 2.607792 73 89 101
-0.039558 0.294055 2.609225 75 91 103
-0.034870 0.294094 2.608819 77 94 105
-0.029951 0.294021 2.610311 69 86 98
-0.025309 0.294082 2.609545 73 89 100
-0.020226 0.293944 2.612143 76 94 105
-0.015320 0.293891 2.613288 66 83 94
-0.010580 0.293913 2.613191 48 64 73
-0.005586 0.293831 2.614834 49 65 75
-0.000705 0.293799 2.615628 44 60 68
0.004087 0.293804 2.615816 46 60 69
0.008882 0.293808 2.616015 49 62 71
